20.3847 -25.6882 168.162
20.3364 -25.4673 167.764
20.4526 -25.2462 167.389
20.3833 -25.1971 168.151
20.2655 -25.091 168.523
20.3824 -24.8697 168.144
20.3819 -24.706 168.14
20.4982 -24.4862 167.763
20.381 -24.3787 168.133
20.3805 -24.2151 168.129
20.3801 -24.0514 168.125
20.3796 -23.8878 168.122
20.2619 -23.7787 168.493
20.2614 -23.6147 168.489
20.3782 -23.3969 168.111
20.3778 -23.2333 168.107
20.3773 -23.0697 168.103
20.2596 -22.9588 168.474
20.2591 -22.7948 168.471
20.3759 -22.5789 168.092
20.3755 -22.4154 168.088
20.375 -22.2518 168.085
20.2573 -22.1391 168.456
20.3046 -22.0247 168.85
20.4718 -21.942 168.871
20.3732 -21.5976 168.07
20.3727 -21.4341 168.066
20.3723 -21.2705 168.063
20.2546 -21.1556 168.433
20.2541 -20.9918 168.43
20.516 -20.5099 169.237
20.5155 -20.3453 169.233
20.3973 -20.2276 169.609
20.6318 -19.9699 168.847
20.5141 -19.8516 169.222
20.5136 -19.687 169.218
20.3954 -19.5678 169.594
20.5127 -19.3579 169.21
20.5122 -19.1934 169.207
20.629 -18.9849 168.825
20.6285 -18.8207 168.821
20.5108 -18.6998 169.195
20.5589 -18.5772 169.592
20.2031 -18.5415 170.739
20.2027 -18.3755 170.735
20.2505 -18.251 171.139
20.25 -18.0847 171.135
20.2495 -17.9183 171.131
20.2491 -17.7519 171.127
20.3193 -17.5046 170.331
20.1999 -17.3796 170.712
20.1994 -17.2136 170.708
20.199 -17.0477 170.704
20.2467 -16.9202 171.108
20.1266 -16.7933 171.493
20.3165 -16.5112 170.308
20.5318 -16.3817 170.731
20.1735 -16.3306 171.893
20.173 -16.1635 171.889
20.1005 -16.0712 172.693
20.5789 -15.7539 171.123
20.3401 -15.6612 171.899
20.291 -15.4589 171.483
20.2905 -15.2922 171.48
20.0982 -15.2322 172.673
20.0977 -15.0644 172.669
20.0009 -14.8284 171.837
20.2173 -14.694 172.267
20.0963 -14.5611 172.657
20.1444 -14.4265 173.07
20.0226 -14.2924 173.464
20.0222 -14.1239 173.46
20.0217 -13.9554 173.456
20.2632 -13.7213 172.659
20.2627 -13.5536 172.655
20.2623 -13.3859 172.651
20.0926 -13.2193 172.626
20.0922 -13.0516 172.622
20.1638 -12.824 171.812
20.5508 -8.47502 168.19
20.5022 -8.29319 167.792
20.5017 -8.13025 167.788
20.6176 -7.94867 167.413
20.6171 -7.78611 167.409
20.5685 -7.60667 167.015
20.4519 -7.46195 167.381
20.499 -7.15276 167.766
20.4506 -6.97436 167.37
20.4981 -6.82699 167.759
20.5458 -6.67896 168.15
20.6618 -6.50032 167.773
20.5449 -6.35249 168.142
20.6609 -6.17461 167.765
20.6604 -6.01176 167.762
20.6116 -5.83597 167.366
20.6787 -5.6476 166.603
20.6107 -5.51105 167.358
20.7745 -5.34769 167.376
20.7256 -5.17382 166.981
20.7251 -5.01175 166.978
20.6089 -4.86129 167.344
20.6568 -1.18398 163.871
20.7696 -1.02202 163.513
20.7216 -0.861591 163.136
20.7212 -0.703253 163.133
20.8334 -0.543076 162.778
20.8329 -0.3851 162.774
20.7198 -0.22828 163.122
20.6063 -0.0707766 163.471
21.1997 0.0907281 163.177
21.0871 0.248914 163.527
20.8132 0.406996 163.857
20.9256 0.565379 163.499
20.9252 0.724 163.496
20.9247 0.882614 163.492
20.8765 1.0388 163.115
20.8284 1.1943 162.74
21.0353 1.51432 163.126
20.9869 1.66876 162.75
20.9865 1.82664 162.747
20.8738 1.98822 163.095
20.9378 2.13757 162.37
20.9374 2.29509 162.366
21.0964 2.45336 162.384
21.0481 2.60505 162.012
21.0477 2.7622 162.008
21.1584 2.91363 161.658
21.1579 3.07042 161.655
21.0942 3.24079 162.366
21.0459 3.39074 161.995
21.1565 3.54078 161.645
21.045 3.70498 161.988
21.0445 3.86208 161.984
20.9324 4.02733 162.329
21.1547 4.16782 161.631
21.1543 4.32456 161.628
21.1538 4.4813 161.624
20.9517 25.2593 163.705
21.1735 26.0948 162.979
20.7637 28.7701 164.723
20.5286 34.545 168.007
20.5133 40.2164 167.88
20.2562 48.2756 168.445
19.8207 -50.3716 177.652
19.8686 -50.1436 178.084
19.8667 -49.4484 178.067
19.8662 -49.2747 178.063
19.9389 -48.0023 177.181
19.8139 -47.9447 177.593
19.8134 -47.7714 177.589
19.8129 -47.5981 177.585
19.8614 -47.5375 178.021
20.1097 -47.136 177.181
19.8604 -47.1901 178.013
19.811 -46.9051 177.569
19.9336 -46.1011 177.135
19.9052 -45.736 178.417
19.8556 -45.4539 177.971
19.7288 -45.042 178.379
19.6796 -44.7615 177.933
19.8531 -44.5861 177.95
19.9018 -44.5182 178.388
19.7259 -43.9983 178.354
19.724 -43.3027 178.337
19.645 -42.8126 179.189
19.6445 -42.6379 179.184
19.7691 -42.0117 178.747
19.8941 -41.7361 178.321
19.6407 -41.2407 179.151
19.6402 -41.066 179.147
19.6397 -40.8914 179.142
19.6392 -40.7168 179.138
19.6388 -40.5422 179.134
19.6369 -39.8439 179.117
19.7121 -38.9579 178.233
19.96 -38.0787 177.378
19.6321 -38.0987 179.075
19.7846 -37.3892 177.341
19.5805 -36.9638 178.604
19.7524 -35.9182 178.601
19.653 -35.0555 177.7
19.6525 -34.8824 177.696
19.652 -34.7093 177.692
19.7756 -34.1077 177.262
19.7752 -33.9351 177.258
19.6497 -33.844 177.671
19.7742 -33.5898 177.25
19.7737 -33.4172 177.246
20.5877 -29.3919 169.837
20.4693 -29.2943 170.216
20.5381 -28.9955 169.428
20.6063 -28.6994 168.647
20.6059 -28.5352 168.643
20.6054 -28.371 168.639
20.6535 -28.2704 169.034
20.6045 -28.0426 168.632
20.4387 -27.8797 168.607
20.4864 -27.7781 169.002
20.486 -27.6136 168.998
20.6512 -27.4477 169.015
20.7852 -26.7106 167.464
20.6205 -26.5489 167.439
20.5038 -26.4462 167.807
20.7651 -26.3998 168.615
20.5979 -25.7447 168.58
20.646 -25.6383 168.974
20.6168 -25.245 167.41
20.6646 -25.1382 167.799
20.6641 -24.9749 167.795
20.6637 -24.8116 167.792
20.6433 -24.6518 168.952
20.4977 -24.3229 167.759
20.5454 -24.2138 168.15
20.4968 -23.9964 167.752
20.6609 -23.8319 167.769
20.544 -23.7229 168.139
20.5919 -23.6123 168.531
20.708 -23.3945 168.153
20.7075 -23.2309 168.149
20.5905 -23.1204 168.52
20.5417 -22.9049 168.121
20.5896 -22.7924 168.513
20.9208 -22.3808 168.547
20.3718 -21.107 168.059
20.5655 -20.8862 169.645
20.565 -20.7213 169.641
20.5645 -20.5563 169.638
20.5641 -20.3913 169.634
20.5636 -20.2264 169.63
20.5631 -20.0614 169.626
20.6114 -19.9415 170.025
20.611 -19.7762 170.021
20.5617 -19.5666 169.615
20.61 -19.4456 170.014
20.6585 -19.3241 170.414
20.6091 -19.115 170.006
20.6086 -18.9498 170.002
20.4901 -18.8283 170.382
20.4896 -18.6627 170.378
20.4891 -18.4971 170.375
20.4887 -18.3314 170.371
20.4882 -18.1658 170.367
20.557 -17.9177 169.577
20.5361 -17.8752 170.765
20.6538 -17.6678 170.376
20.6533 -17.5022 170.373
20.6529 -17.3367 170.369
20.4154 -17.2517 171.137
20.4149 -17.0854 171.133
20.4145 -16.9191 171.129
20.4628 -16.791 171.535
20.4624 -16.6243 171.531
20.5318 -16.3817 170.731
20.5314 -16.2158 170.727
20.2929 -16.1255 171.499
20.341 -15.9953 171.906
20.3406 -15.8283 171.902
20.4596 -15.6243 171.508
20.3885 -15.5298 172.308
20.3392 -15.3272 171.891
20.3387 -15.1602 171.887
20.2183 -15.0287 172.275
20.2665 -14.8955 172.686
20.266 -14.7277 172.682
20.2655 -14.56 172.679
20.2651 -14.3922 172.675
20.1439 -14.2584 173.067
20.1921 -14.1228 173.481
20.2637 -13.889 172.663
20.3121 -13.7529 173.076
20.2627 -13.5536 172.655
20.3824 -13.3541 172.257
20.2618 -13.2182 172.647
20.2613 -13.0505 172.644
20.1402 -12.9136 173.035
20.3806 -12.685 172.242
20.7342 -8.25451 167.05
20.7823 -8.11028 167.438
20.7818 -7.94771 167.434
20.7814 -7.78516 167.43
20.665 -7.64053 167.798
20.6645 -7.47762 167.795
20.9615 -7.2474 166.293
20.8463 -7.10256 166.656
20.7306 -6.95706 167.021
20.7301 -6.79491 167.018
20.7782 -6.64748 167.405
20.8931 -6.46971 167.031
20.8926 -6.30758 167.027
20.7094 -6.18835 168.16
20.8917 -5.98336 167.02
20.66 -5.84893 167.758
20.5431 -5.69965 168.128
20.6591 -5.52327 167.751
20.8899 -5.33499 167.006
20.7741 -5.18525 167.372
20.7736 -5.02282 167.368
20.7247 -4.84968 166.974
20.9325 -1.81475 163.552
20.932 -1.65603 163.548
20.8186 -1.50128 163.899
20.8182 -1.34222 163.896
20.9306 -1.1799 163.538
21.0426 -1.01831 163.181
21.1541 -0.857428 162.826
20.9293 -0.703833 163.527
20.9288 -0.545158 163.524
20.8329 -0.3851 162.774
20.9279 -0.227827 163.517
20.9274 -0.0691726 163.513
21.1997 0.0907281 163.177
20.9746 0.248809 163.881
21.135 0.408588 163.899
21.4698 0.565772 162.836
21.4206 0.721971 162.462
21.3715 0.877487 162.09
21.1969 1.04036 163.157
21.3567 1.19939 163.174
21.196 1.35685 163.15
21.1956 1.51509 163.146
21.1951 1.67332 163.143
21.4788 1.97422 161.72
21.2569 2.13909 162.411
21.2564 2.29661 162.408
21.256 2.45411 162.404
21.1441 2.61669 162.75
21.2551 2.7691 162.397
21.2546 2.92658 162.394
21.1427 3.09018 162.74
21.1423 3.248 162.737
21.1418 3.40581 162.733
21.4257 3.53445 161.32
21.3149 3.69828 161.662
21.2032 4.01991 162.001
21.2023 4.33408 161.995
21.2019 4.49116 161.991
20.495 46.2809 167.737
20.2999 49.8482 168.809
20.1151 -49.0377 177.226
20.1641 -48.9804 177.66
20.1636 -48.8071 177.656
20.1632 -48.6338 177.652
20.1627 -48.4605 177.648
20.1126 -48.1731 177.206
20.1121 -48.0003 177.201
20.1107 -47.4817 177.189
20.281 -46.4427 177.185
20.2805 -46.2699 177.181
20.032 -46.3199 178.013
20.0315 -46.1463 178.008
20.031 -45.9727 178.004
19.9812 -45.6907 177.56
19.9502 -44.2756 178.823
20.0748 -43.9944 178.396
19.8994 -43.6485 178.367
19.8989 -43.4746 178.362
20.0699 -42.2556 178.354
19.895 -42.0837 178.329
19.7691 -42.0117 178.747
19.8168 -41.5881 179.18
19.7672 -41.3147 178.731
19.7653 -40.618 178.714
19.8902 -40.3458 178.287
19.8898 -40.1721 178.283
19.8125 -40.0167 179.142
19.812 -39.8421 179.138
20.0622 -39.4754 178.287
20.0122 -39.2085 177.842
19.761 -39.0507 178.676
20.0103 -38.5155 177.825
20.0098 -38.3422 177.821
19.8845 -38.2615 178.237
19.7586 -38.1803 178.655
19.8835 -37.9142 178.229
19.8831 -37.7405 178.225
19.8816 -37.2197 178.212
19.8812 -37.0461 178.208
19.93 -36.9603 178.647
19.979 -36.8741 179.088
19.9786 -36.6997 179.083
19.8792 -36.3518 178.191
19.8788 -36.1783 178.187
19.8773 -35.6576 178.175
19.8769 -35.4841 178.171
19.8754 -34.9636 178.158
19.875 -34.7901 178.154
19.8254 -34.5346 177.709
19.874 -34.4432 178.146
20.8058 -30.286 170.281
20.7056 -29.4891 169.46
20.7225 -28.4698 168.267
20.7698 -28.0413 168.653
20.7693 -27.8771 168.649
20.7689 -27.7129 168.645
20.7684 -27.5488 168.641
20.7679 -27.3846 168.638
20.7675 -27.2204 168.634
20.6017 -27.0576 168.61
20.8334 -26.607 167.853
20.8329 -26.4437 167.849
20.7838 -26.2216 167.453
20.832 -26.1169 167.842
20.7155 -26.0131 168.212
20.715 -25.8494 168.208
20.7145 -25.6857 168.204
20.7141 -25.522 168.201
20.7136 -25.3583 168.197
20.7131 -25.1946 168.193
20.7127 -25.0309 168.19
20.7122 -24.8672 168.186
20.8278 -24.647 167.809
20.6628 -24.485 167.784
20.6623 -24.3217 167.78
20.6618 -24.1584 167.777
20.6614 -23.9951 167.773
20.7094 -23.8853 168.164
20.7089 -23.7217 168.16
20.7085 -23.5581 168.156
20.708 -23.3945 168.153
20.591 -23.2843 168.524
20.5905 -23.1204 168.52
20.5901 -22.9564 168.517
20.5896 -22.7924 168.513
20.804 -22.2681 168.92
20.8035 -22.1038 168.917
20.8522 -21.989 169.312
20.8517 -21.8244 169.308
20.7342 -21.71 169.685
20.7337 -21.545 169.681
20.8503 -21.3305 169.297
20.8498 -21.1659 169.293
20.8493 -21.0012 169.289
20.9161 -20.7418 168.51
20.9156 -20.578 168.506
20.7988 -20.4613 168.879
20.7983 -20.2971 168.875
20.7978 -20.1329 168.872
20.6805 -20.0149 169.246
20.9132 -19.7588 168.488
20.9127 -19.595 168.484
20.845 -19.52 169.256
20.8939 -19.3992 169.653
20.7762 -19.2791 170.031
20.7266 -19.0706 169.624
20.7941 -18.8195 168.842
20.9592 -18.6542 168.859
20.6566 -18.6615 170.399
20.6562 -18.4959 170.395
20.7734 -18.2875 170.008
20.7729 -18.1223 170.004
20.6547 -17.999 170.384
20.6543 -17.8334 170.38
20.6538 -17.6678 170.376
20.7025 -17.542 170.779
20.702 -17.3761 170.775
20.5342 -17.2113 170.75
20.6319 -17.1232 171.564
20.6315 -16.9565 171.56
20.7495 -16.7504 171.167
20.7491 -16.5841 171.163
20.7486 -16.4178 171.159
20.7481 -16.2515 171.156
20.51 -16.1612 171.931
20.5095 -15.9941 171.927
20.8647 -15.7157 170.757
20.5086 -15.6601 171.92
20.5081 -15.4931 171.916
20.5077 -15.3261 171.912
20.5771 -15.0889 171.108
20.6752 -14.9909 171.925
20.5555 -14.859 172.313
20.555 -14.6917 172.309
20.4348 -14.5588 172.7
20.4836 -14.4242 173.112
20.6031 -14.2222 172.712
20.4826 -14.088 173.105
20.6021 -13.8868 172.705
20.6016 -13.7191 172.701
20.3607 -13.6161 173.491
20.4808 -13.4156 173.089
20.3598 -13.2792 173.483
20.4305 -13.0494 172.664
20.5498 -12.8511 172.267
20.4296 -12.7141 172.657
20.3801 -12.5177 172.238
20.4992 -12.3211 171.842
20.7828 -8.27285 167.441
20.9466 -8.10931 167.458
20.9952 -7.96443 167.847
20.9457 -7.7842 167.451
20.8963 -7.60478 167.056
20.9929 -7.14992 167.829
20.9924 -6.98704 167.825
20.9424 -6.64654 167.425
20.8926 -6.30758 167.027
20.941 -6.15908 167.414
21.1702 -5.96832 166.672
21.1697 -5.80659 166.669
21.0547 -5.65824 167.033
20.9392 -5.50923 167.4
20.8227 -5.19674 167.764
20.889 -5.01085 166.998
21.0287 -1.82243 164.304
21.0283 -1.66301 164.301
20.9796 -1.50045 163.92
21.0274 -1.34419 164.293
21.0913 -1.17908 163.558
21.0426 -1.01831 163.181
20.9778 -0.864259 163.906
21.0417 -0.701633 163.174
21.0412 -0.543307 163.171
21.0408 -0.384987 163.167
21.0403 -0.226675 163.164
21.2487 -0.0675678 163.554
21.2482 0.0910748 163.551
21.5198 0.250607 163.215
21.2473 0.408339 163.544
21.3586 0.566365 163.187
21.3581 0.724632 163.184
21.3576 0.882891 163.18
21.1969 1.04036 163.157
21.3076 1.35453 162.798
21.4183 1.50975 162.445
21.4178 1.66728 162.442
21.6872 1.82223 162.11
21.6377 1.97498 161.74
21.6372 2.13181 161.736
21.4294 2.2828 161.347
21.4155 2.45486 162.424
21.4151 2.61236 162.421
21.4141 2.92733 162.414
21.3651 3.07797 162.042
21.4132 3.24227 162.407
21.4128 3.39973 162.404
21.3637 3.54933 162.032
21.8024 3.67689 160.651
21.3628 3.86354 162.025
21.4729 4.01251 161.675
21.5211 4.17844 162.039
21.5206 4.33552 162.035
21.4082 4.97398 162.37
20.7688 31.4836 167.328
20.7557 47.5468 168.529
20.1641 -48.9804 177.66
20.1636 -48.8071 177.656
20.1136 -48.5189 177.214
20.1131 -48.346 177.21
20.1622 -48.2872 177.643
20.1602 -47.5941 177.627
20.1597 -47.4208 177.623
20.283 -47.1339 177.201
20.3557 -46.7383 176.348
20.282 -46.7883 177.193
20.1524 -44.8229 177.56
20.2017 -44.7556 177.996
20.0272 -44.5841 177.971
20.151 -44.3035 177.548
20.1505 -44.1304 177.544
20.15 -43.9573 177.54
19.9468 -43.0553 178.793
19.897 -42.7791 178.346
19.8955 -42.2576 178.333
19.9444 -42.184 178.772
20.069 -41.908 178.346
20.0685 -41.7342 178.342
20.1168 -41.3109 178.772
20.0665 -41.039 178.325
19.9906 -41.0623 179.188
19.9901 -40.8877 179.184
19.9401 -40.6161 178.735
19.9396 -40.4419 178.731
19.9887 -40.3639 179.172
19.9882 -40.1893 179.167
20.0632 -39.8228 178.296
19.9377 -39.7453 178.714
19.9867 -39.6657 179.155
20.0603 -38.7806 178.271
19.9843 -38.7931 179.134
19.9329 -38.0044 178.672
19.8831 -37.7405 178.225
19.9795 -37.0485 179.092
19.9988 -34.3599 177.726
20.2457 -33.8501 176.885
20.8039 -29.6229 170.265
20.7542 -29.3905 169.858
20.8029 -29.2915 170.258
20.8197 -28.4336 169.058
20.8192 -28.269 169.054
20.7698 -28.0413 168.653
20.7693 -27.8771 168.649
20.6521 -27.7768 169.023
20.7197 -27.4869 168.245
20.7192 -27.3231 168.241
20.9328 -27.2191 168.655
20.9817 -27.1159 169.049
20.8828 -26.8305 168.251
20.8334 -26.607 167.853
20.8329 -26.4437 167.849
20.8324 -26.2803 167.845
20.7159 -26.1768 168.215
20.7155 -26.0131 168.212
20.715 -25.8494 168.208
20.9461 -25.5683 167.459
20.9456 -25.4054 167.455
20.9452 -25.2424 167.451
20.8292 -25.1369 167.82
20.8287 -24.9736 167.816
20.8282 -24.8103 167.812
20.7791 -24.5919 167.416
20.7113 -24.5399 168.178
20.7108 -24.3762 168.175
20.7103 -24.2126 168.171
20.7099 -24.049 168.167
20.805 -22.5967 168.928
20.8522 -21.989 169.312
20.8517 -21.8244 169.308
20.8512 -21.6598 169.305
21.0167 -21.4938 169.321
21.0163 -21.3292 169.317
20.8498 -21.1659 169.293
20.9658 -20.9527 168.911
20.7997 -20.7898 168.887
20.9649 -20.6243 168.903
20.7309 -20.555 169.658
20.9639 -20.2959 168.896
21.0129 -20.177 169.291
20.8465 -20.0137 169.267
20.846 -19.8492 169.263
20.7285 -19.7303 169.64
20.7772 -19.6097 170.038
20.7767 -19.4444 170.035
20.8934 -19.2343 169.649
20.7758 -19.1138 170.027
20.7753 -18.9486 170.023
20.892 -18.7396 169.638
20.7743 -18.618 170.016
20.7739 -18.4528 170.012
20.8227 -18.329 170.412
20.8901 -18.0802 169.622
20.8896 -17.9153 169.619
20.8213 -17.8322 170.401
20.7524 -17.7483 171.19
20.7025 -17.542 170.779
20.702 -17.3761 170.775
20.7016 -17.2101 170.771
20.7505 -17.083 171.175
20.75 -16.9167 171.171
20.7495 -16.7504 171.167
20.7491 -16.5841 171.163
20.7486 -16.4178 171.159
20.7481 -16.2515 171.156
20.7476 -16.0852 171.152
20.7472 -15.919 171.148
20.6776 -15.8259 171.944
20.7958 -15.622 171.55
20.7457 -15.4202 171.136
20.5569 -15.3612 172.325
20.4859 -15.2649 173.132
20.556 -15.0264 172.317
20.6049 -14.8932 172.728
20.6045 -14.7254 172.724
20.604 -14.5577 172.72
20.4836 -14.4242 173.112
20.4831 -14.2561 173.108
20.6026 -14.0545 172.709
20.6518 -13.9187 173.121
20.5312 -13.7835 173.515
20.5307 -13.615 173.511
20.5302 -13.4465 173.507
20.7196 -13.1846 172.295
20.5998 -13.0483 172.685
20.5993 -12.8806 172.681
20.4789 -12.7433 173.073
20.4291 -12.5464 172.653
20.4992 -12.3211 171.842
20.8804 -8.30976 168.228
21.2902 -8.05275 166.352
21.1265 -7.89225 166.328
21.0607 -7.76599 167.081
21.0603 -7.60382 167.077
21.0598 -7.44165 167.073
21.0593 -7.27948 167.07
20.9438 -7.13406 167.436
21.2223 -6.95422 167.083
21.0579 -6.79303 167.059
21.0575 -6.6309 167.055
20.9906 -6.33559 167.81
20.9901 -6.17274 167.807
20.9897 -6.0099 167.803
20.8426 -5.80843 166.628
20.8908 -5.65916 167.013
20.9392 -5.50923 167.4
20.8232 -5.35955 167.768
20.9383 -5.18434 167.393
21.1419 -1.97682 163.951
21.1415 -1.81775 163.948
21.141 -1.65868 163.944
21.1406 -1.49962 163.941
21.1401 -1.34056 163.937
21.1396 -1.18152 163.934
21.1392 -1.02247 163.93
20.9778 -0.864259 163.906
20.9293 -0.703833 163.527
21.0412 -0.543307 163.171
21.0408 -0.384987 163.167
21.3609 -0.225068 163.205
21.2487 -0.0675678 163.554
21.4579 0.0922244 163.946
21.4084 0.250507 163.568
21.1988 0.4073 163.171
21.2468 0.566962 163.54
21.2464 0.725577 163.537
21.2459 0.884185 163.533
21.2454 1.04279 163.53
21.245 1.20138 163.527
21.4675 1.3553 162.819
21.4671 1.51318 162.815
21.4666 1.67106 162.812
21.5769 1.82557 162.458
21.6868 1.9794 162.106
21.6863 2.13657 162.103
21.5755 2.29811 162.448
21.4643 2.46035 162.794
21.8548 2.59223 161.037
21.8543 2.74836 161.034
21.4141 2.92733 162.414
21.4137 3.0848 162.411
21.4266 3.22158 161.327
21.6335 3.3862 161.709
21.5842 3.53518 161.341
21.4738 3.699 161.682
21.4733 3.85576 161.679
21.4729 4.01251 161.675
21.6312 4.16997 161.692
21.41 4.34436 162.383
21.4096 4.50178 162.38
20.8644 32.2743 168.098
20.855 35.68 168.022
20.9195 48.0333 168.538
20.1646 -49.1538 177.664
20.1641 -48.9804 177.66
20.2835 -47.3067 177.205
20.4061 -47.0208 176.786
20.4056 -46.8484 176.782
20.4022 -45.6417 176.753
20.1549 -45.6887 177.581
20.328 -45.5134 177.597
20.4508 -45.2312 177.176
20.1534 -45.1692 177.569
20.2002 -44.2351 177.983
20.1997 -44.0616 177.979
20.2482 -43.6445 178.408
20.1173 -41.4851 178.776
20.1144 -40.44 178.751
20.1139 -40.2659 178.747
20.1134 -40.0917 178.743
20.2376 -39.8209 178.316
20.2371 -39.6472 178.312
20.1115 -39.3952 178.726
20.1095 -38.6989 178.709
20.1067 -37.6545 178.684
20.1062 -37.4805 178.68
20.1057 -37.3065 178.676
20.1052 -37.1325 178.672
19.9795 -37.0485 179.092
20.1528 -36.3491 179.096
20.0985 -34.6973 178.613
20.098 -34.5234 178.609
20.1722 -34.1851 177.743
20.1718 -34.0121 177.739
20.9225 -30.0505 169.894
20.9221 -29.8851 169.89
20.9202 -29.2237 169.875
20.8703 -28.9927 169.469
20.9371 -28.6966 168.688
20.9366 -28.5324 168.684
20.9361 -28.3682 168.681
21.0515 -28.1394 168.301
21.1664 -27.9115 167.923
21.0487 -27.1566 168.279
20.9989 -26.9325 167.881
20.9985 -26.7691 167.877
20.8823 -26.6667 168.247
20.9309 -26.5626 168.64
21.0463 -26.3379 168.26
20.9966 -26.1156 167.862
20.9471 -25.8943 167.466
20.9956 -25.7889 167.855
20.9952 -25.6256 167.851
20.9947 -25.4622 167.848
20.9938 -25.1356 167.84
20.9442 -24.9165 167.444
21.0588 -24.6972 167.07
21.1425 -24.7307 169.017
21.1396 -23.7444 168.995
21.1391 -23.5801 168.991
21.0225 -23.4699 169.366
21.0215 -23.1405 169.359
20.9715 -22.9241 168.956
21.0206 -22.8111 169.351
21.0201 -22.6464 169.348
21.0196 -22.4817 169.344
21.1353 -22.2655 168.961
21.0187 -22.1524 169.336
21.1343 -21.937 168.954
21.1338 -21.7727 168.95
21.1334 -21.6084 168.946
21.2485 -21.3947 168.565
21.0153 -21 169.31
21.0148 -20.8354 169.306
21.1305 -20.623 168.924
21.13 -20.4588 168.92
21.0134 -20.3416 169.295
21.0129 -20.177 169.291
21.1286 -19.9662 168.909
21.1779 -19.8466 169.304
21.0612 -19.7278 169.68
21.0607 -19.5629 169.677
20.9434 -19.4431 170.055
20.9429 -19.2779 170.051
20.9424 -19.1126 170.047
21.0588 -18.9033 169.662
21.1746 -18.6949 169.278
21.0578 -18.5735 169.654
21.0573 -18.4087 169.65
20.9898 -18.3278 170.433
20.9396 -18.1211 170.025
20.9888 -17.9966 170.425
20.9884 -17.831 170.421
20.9879 -17.6654 170.417
20.9874 -17.4998 170.414
20.9869 -17.3342 170.41
21.1034 -17.1286 170.022
21.1029 -16.9635 170.019
21.1024 -16.7983 170.015
20.8675 -16.7111 170.78
20.7491 -16.5841 171.163
20.9841 -16.341 170.387
20.7481 -16.2515 171.156
20.8656 -16.0475 170.765
20.8652 -15.8816 170.761
20.8461 -15.8247 171.964
20.8456 -15.6577 171.961
20.8451 -15.4907 171.957
20.8447 -15.3237 171.953
20.7752 -15.2275 172.756
20.6551 -15.0956 173.149
20.6546 -14.9274 173.145
20.7239 -14.6905 172.33
20.6738 -14.49 171.913
20.6532 -14.423 173.133
20.8224 -14.2537 173.149
20.7718 -14.0533 172.729
20.8904 -13.8526 172.331
20.7709 -13.7179 172.721
20.7007 -13.6138 173.532
20.6504 -13.4144 173.109
20.9568 -13.1222 171.512
20.4798 -13.0794 173.081
20.6489 -12.9102 173.098
20.6485 -12.7422 173.094
21.1114 -8.27089 167.482
21.1109 -8.10833 167.479
21.1104 -7.94577 167.475
21.11 -7.78323 167.471
21.1095 -7.62069 167.468
21.109 -7.45815 167.464
21.1086 -7.29563 167.46
21.2228 -7.11637 167.086
21.2223 -6.95422 167.083
21.2219 -6.79208 167.079
21.0575 -6.6309 167.055
21.1716 -6.45357 166.683
21.3347 -6.29087 166.7
21.3342 -6.12912 166.696
21.2195 -5.9815 167.061
21.2687 -5.83227 167.448
21.2682 -5.66982 167.444
21.2677 -5.50737 167.441
21.2673 -5.34494 167.437
21.2403 -2.30481 164.714
21.3034 -2.13506 163.975
21.2542 -1.97181 163.596
21.5258 -1.80761 163.26
21.302 -1.65785 163.965
21.3016 -1.49879 163.961
21.2524 -1.33695 163.582
21.3637 -1.17501 163.226
21.5235 -1.01585 163.242
21.2997 -0.862621 163.947
21.3623 -0.700009 163.215
21.3131 -0.540656 162.84
21.3613 -0.383375 163.208
21.3609 -0.225068 163.205
21.4093 -0.066765 163.575
21.4579 0.0922244 163.946
21.2965 0.250406 163.922
21.3449 0.410431 164.296
21.8999 0.56675 162.525
21.8994 0.724316 162.522
21.5179 0.883674 163.201
21.5667 1.04435 163.57
21.7384 1.1962 162.492
21.6886 1.35067 162.12
21.798 1.50522 161.77
21.5774 1.66805 162.462
21.5769 1.82557 162.458
21.5765 1.98309 162.455
21.6863 2.13657 162.103
21.7957 2.28938 161.753
21.6854 2.45089 162.096
21.4638 2.61819 162.791
21.5741 2.77059 162.438
21.5248 2.92158 162.066
21.5732 3.08554 162.431
21.462 3.24947 162.777
21.6335 3.3862 161.709
21.4611 3.56508 162.77
21.5096 3.73113 163.138
21.6812 3.86498 162.065
21.6807 4.02207 162.062
21.7901 4.17068 161.712
21.6798 4.33622 162.055
21.6794 4.49329 162.052
21.709 15.0933 161.111
21.316 27.3767 164.076
21.3474 28.7383 165.548
21.4001 40.3579 167.208
20.5105 -48.6294 177.692
20.51 -48.4561 177.688
20.5096 -48.2828 177.684
20.5091 -48.1095 177.68
20.5086 -47.9363 177.676
20.4577 -47.6503 177.234
20.5056 -46.8968 177.651
20.4548 -46.6133 177.209
20.4543 -46.4405 177.205
20.4538 -46.2677 177.201
20.4523 -45.7494 177.189
20.4518 -45.5767 177.184
20.5017 -45.5113 177.618
20.5012 -45.3381 177.614
20.4504 -45.0585 177.172
20.5002 -44.9919 177.605
20.4973 -43.9532 177.58
20.3733 -43.886 177.995
20.6187 -43.3295 177.151
20.2945 -42.3543 178.818
20.2414 -41.2108 178.35
20.2409 -41.0371 178.345
20.2906 -40.9606 178.784
20.2901 -40.7864 178.78
20.2897 -40.6122 178.776
20.2892 -40.4381 178.772
20.2887 -40.2639 178.768
20.2882 -40.0898 178.763
20.2877 -39.9156 178.759
20.2872 -39.7415 178.755
20.2867 -39.5674 178.751
20.1614 -39.4892 179.171
20.2858 -39.2192 178.743
20.2853 -39.0451 178.738
20.2848 -38.871 178.734
20.2843 -38.6969 178.73
20.2092 -38.709 179.597
20.2829 -38.1748 178.717
20.2824 -38.0007 178.713
20.2819 -37.8267 178.709
20.2814 -37.6527 178.705
20.2809 -37.4786 178.701
20.3308 -37.3936 179.141
20.2776 -36.2607 178.671
20.2771 -36.0868 178.667
20.2766 -35.9129 178.663
20.472 -34.9641 177.366
20.3974 -34.6114 178.212
20.3461 -34.1834 177.763
21.2011 -28.4949 169.499
20.9845 -28.1031 169.071
21.1498 -27.9371 169.088
21.1493 -27.7725 169.084
21.2141 -27.319 168.303
21.2137 -27.1552 168.299
21.0977 -27.0535 168.671
21.0477 -26.8291 168.271
21.0473 -26.6654 168.268
21.1621 -26.4409 167.89
21.1617 -26.2776 167.886
21.1612 -26.1142 167.883
21.1607 -25.9509 167.879
21.5387 -24.7793 168.288
21.4879 -24.5607 167.89
21.1909 -24.2922 169.405
21.3063 -24.0718 169.022
21.2557 -23.8537 168.621
21.1396 -23.7444 168.995
21.2548 -23.5258 168.614
21.3043 -23.4144 169.007
21.3038 -23.25 169.004
21.3536 -23.1377 169.399
21.3029 -22.9214 168.996
21.2524 -22.706 168.595
21.2519 -22.5421 168.591
21.1358 -22.4298 168.965
21.3009 -22.2642 168.981
21.3005 -22.0999 168.977
21.1343 -21.937 168.954
21.1338 -21.7727 168.95
21.248 -21.2309 168.562
21.2976 -21.1144 168.955
21.1813 -20.9987 169.33
21.1808 -20.8341 169.326
21.4114 -20.5741 168.567
21.2956 -20.4575 168.94
21.3454 -20.339 169.335
21.229 -20.2213 169.712
21.1784 -20.0112 169.308
21.1779 -19.8466 169.304
21.1775 -19.6821 169.3
21.177 -19.5175 169.296
21.1765 -19.353 169.293
21.1096 -19.2766 170.071
21.1091 -19.1113 170.068
21.1087 -18.946 170.064
21.4559 -18.6504 168.919
21.3401 -18.5292 169.294
21.2237 -18.4074 169.67
21.1067 -18.2851 170.049
20.9893 -18.1622 170.429
20.9888 -17.9966 170.425
20.9884 -17.831 170.421
20.9879 -17.6654 170.417
21.1545 -17.4986 170.434
21.154 -17.333 170.43
21.0865 -17.2468 171.219
21.086 -17.0805 171.215
20.9178 -16.9155 171.191
20.8675 -16.7111 170.78
21.0846 -16.5816 171.204
21.0841 -16.4153 171.2
21.0836 -16.2491 171.196
21.0832 -16.0828 171.192
21.0827 -15.9165 171.189
20.9644 -15.7874 171.574
21.0141 -15.6565 171.981
21.0136 -15.4895 171.977
21.0132 -15.3225 171.973
20.9625 -15.1209 171.558
21.0122 -14.9885 171.965
21.0621 -14.8555 172.374
21.0617 -14.6881 172.37
20.9425 -14.5553 172.761
20.942 -14.3875 172.757
20.9416 -14.2198 172.753
20.9915 -14.0844 173.166
20.991 -13.9163 173.162
20.9906 -13.7482 173.158
20.9901 -13.5802 173.154
20.9392 -13.3813 172.734
20.8885 -13.1834 172.315
20.769 -13.0472 172.706
20.7187 -12.85 172.287
20.768 -12.7118 172.698
20.7676 -12.5442 172.694
20.7671 -12.3765 172.69
21.325 -8.12537 167.891
21.5029 -7.90773 166.756
21.4525 -7.72885 166.365
21.4521 -7.56741 166.361
21.5648 -7.38873 165.992
21.2233 -7.27852 167.09
21.2724 -7.13214 167.477
21.5001 -6.93696 166.734
21.4996 -6.77519 166.73
21.6628 -6.61246 166.747
21.3849 -6.46687 167.092
21.2205 -6.30571 167.068
21.4978 -6.12818 166.716
21.2691 -5.99473 167.451
21.4325 -5.66888 167.464
21.432 -5.50644 167.46
21.4654 -2.45239 164.002
21.3528 -2.29904 164.355
21.4644 -2.13422 163.995
21.464 -1.97514 163.992
21.4635 -1.81607 163.988
21.351 -1.66134 164.341
21.3505 -1.50193 164.338
21.4621 -1.33891 163.978
21.4616 -1.17986 163.974
21.4121 -1.01875 163.596
21.4607 -0.861801 163.967
21.3623 -0.700009 163.215
21.4593 -0.384757 163.957
21.5704 -0.224605 163.598
21.5699 -0.0659621 163.595
21.6189 0.0930257 163.966
21.569 0.251304 163.588
21.5685 0.409926 163.584
21.5681 0.568542 163.581
21.6293 0.724474 162.852
21.5671 0.885753 163.574
21.5667 1.04435 163.57
21.5662 1.20294 163.567
21.5657 1.36152 163.563
21.6763 1.5174 163.207
21.7865 1.67259 162.852
21.7855 1.98831 162.845
21.8952 2.14211 162.491
21.8947 2.29961 162.488
21.8942 2.4571 162.484
21.7342 2.61384 162.461
21.7337 2.77133 162.458
21.8432 2.92305 162.106
21.8427 3.08017 162.102
21.9518 3.23087 161.752
21.7924 3.38692 161.729
21.6821 3.55078 162.072
21.9008 3.69303 161.377
21.791 3.8572 161.719
21.73 4.03094 162.43
21.7295 4.18837 162.427
21.7785 4.35538 162.793
21.7286 4.50319 162.42
21.4164 26.7013 164.849
21.0961 31.8069 167.361
20.6335 -48.5124 177.275
20.632 -47.9938 177.262
20.7539 -47.7061 176.843
20.7534 -47.5337 176.838
20.6305 -47.4752 177.25
20.63 -47.3024 177.246
20.7519 -47.0164 176.826
20.629 -46.9567 177.238
20.6285 -46.7839 177.233
20.5051 -46.7236 177.647
20.5046 -46.5504 177.643
20.6271 -46.2656 177.221
20.7999 -46.0906 177.237
20.7994 -45.9178 177.233
20.6256 -45.7473 177.209
20.6251 -45.5745 177.205
20.6241 -45.2291 177.196
20.6236 -45.0563 177.192
20.7455 -44.7759 176.773
20.5449 -43.0166 177.995
20.5444 -42.8431 177.991
20.5439 -42.6697 177.986
20.5434 -42.4963 177.982
20.5429 -42.3229 177.978
20.5917 -41.7281 178.403
20.5912 -41.5543 178.398
20.5908 -41.3805 178.394
20.4659 -41.1327 178.809
20.4655 -40.9585 178.805
20.465 -40.7844 178.8
20.5153 -40.707 179.241
20.5878 -40.338 178.369
20.4635 -40.2619 178.788
20.463 -40.0878 178.784
20.4625 -39.9136 178.779
20.462 -39.7395 178.775
20.4596 -38.869 178.754
20.4591 -38.695 178.75
20.3337 -38.4403 179.166
20.3332 -38.2658 179.162
20.58 -37.5595 178.303
20.4547 -37.1287 178.713
20.4542 -36.9547 178.708
20.5721 -33.8301 178.217
21.204 -29.4846 169.521
21.2669 -28.3654 168.721
21.2664 -28.2012 168.717
21.216 -27.9741 168.318
21.2654 -27.8728 168.71
21.4259 -25.4926 168.679
21.4254 -25.3285 168.675
21.4894 -25.0506 167.901
21.4889 -24.8873 167.897
21.3738 -24.7808 168.268
21.3733 -24.6171 168.264
21.423 -24.5083 168.656
21.5373 -24.2884 168.277
21.422 -24.1803 168.649
21.4215 -24.0163 168.645
21.4715 -23.906 169.038
21.3551 -23.6319 169.41
21.47 -23.413 169.027
21.3541 -23.3024 169.403
21.3536 -23.1377 169.399
21.3531 -22.973 169.395
21.3526 -22.8084 169.391
21.4676 -22.5914 169.009
21.4671 -22.4271 169.005
21.3009 -22.2642 168.981
21.4157 -22.049 168.6
21.4656 -21.9343 168.994
21.4651 -21.77 168.99
21.4647 -21.6057 168.986
21.4642 -21.4415 168.982
21.4637 -21.2773 168.979
21.4632 -21.113 168.975
21.3473 -20.9973 169.35
21.3468 -20.8327 169.346
21.4617 -20.6204 168.964
21.3459 -20.5036 169.339
21.3454 -20.339 169.335
21.3953 -20.22 169.732
21.3948 -20.055 169.728
21.5099 -19.844 169.344
21.5094 -19.6794 169.34
21.624 -19.4698 168.957
21.4579 -19.3069 168.934
21.342 -19.1872 169.309
21.3919 -19.0656 169.705
21.2754 -18.9447 170.084
21.2749 -18.7795 170.08
21.2241 -18.5723 169.674
21.2739 -18.449 170.073
21.3239 -18.3252 170.473
21.3234 -18.1596 170.469
21.2725 -17.9533 170.061
21.272 -17.7881 170.057
21.2715 -17.6229 170.054
21.3215 -17.4973 170.454
21.2043 -17.3724 170.836
21.3205 -17.1662 170.446
21.2033 -17.0405 170.828
21.2028 -16.8746 170.824
21.0851 -16.7479 171.208
21.4348 -16.4655 170.047
21.0841 -16.4153 171.2
21.2009 -16.211 170.809
21.1841 -16.1563 172.012
21.1836 -15.9893 172.009
21.1831 -15.8222 172.005
21.2495 -15.5828 171.201
21.2998 -15.4517 171.606
21.1817 -15.3212 171.993
21.0631 -15.1902 172.382
21.0626 -15.0228 172.378
21.0621 -14.8555 172.374
21.0113 -14.6546 171.958
21.0607 -14.3534 172.363
21.0602 -14.1861 172.359
21.0422 -14.1169 173.584
21.0412 -13.7799 173.576
21.0408 -13.6114 173.572
20.9896 -13.4121 173.15
20.9891 -13.244 173.146
20.9887 -13.076 173.142
21.0736 -12.759 171.116
21.1904 -12.5632 170.725
21.1396 -12.3695 170.316
21.4395 -8.10634 167.519
21.4391 -7.94379 167.515
21.4386 -7.78125 167.512
21.4381 -7.61872 167.508
21.4376 -7.45619 167.504
21.6015 -7.29269 167.52
21.601 -7.13018 167.517
21.4362 -6.96866 167.493
21.4358 -6.80616 167.49
21.3356 -6.61438 166.707
21.5488 -6.46591 167.112
21.5986 -6.31774 167.498
21.5479 -6.1417 167.105
21.5474 -5.9796 167.101
21.6775 -2.93512 164.41
21.7884 -2.76886 164.049
21.5647 -2.62268 164.761
21.5147 -2.45763 164.379
21.5637 -2.30309 164.754
21.6751 -2.1379 164.392
21.5628 -1.98354 164.747
21.6245 -1.81523 164.008
21.5123 -1.6605 164.361
21.5732 -1.17661 163.619
21.5727 -1.01792 163.616
21.6834 -0.856701 163.259
21.6829 -0.698381 163.255
21.6824 -0.540067 163.252
21.6819 -0.381759 163.248
21.731 -0.223799 163.618
21.8912 -0.0643557 163.634
21.7794 0.2528 163.982
21.7789 0.411767 163.979
21.9997 0.569516 163.267
21.9492 0.726039 162.892
21.7888 0.883162 162.869
21.7273 1.04513 163.59
22.0576 1.19774 162.531
21.8371 1.35994 163.23
21.8366 1.51817 163.226
21.8361 1.67638 163.223
21.8357 1.83459 163.219
21.6868 1.9794 162.106
21.6863 2.13657 162.103
21.7957 2.28938 161.753
22.2217 2.44298 161.443
22.1126 2.60446 161.785
22.1708 2.74982 161.073
22.1703 2.90592 161.069
22.0116 3.0613 161.047
22.3851 3.20547 160.379
22.1097 3.54511 161.765
22.0001 3.70931 162.108
21.9996 3.8664 162.105
21.9992 4.02348 162.101
21.9987 4.18056 162.098
21.9982 4.33762 162.095
21.9978 4.49469 162.091
22.1064 4.64224 161.741
21.7771 4.82861 162.782
21.3558 38.3379 166.863
21.2019 47.2767 168.196
20.8063 -48.3372 177.29
20.8058 -48.1643 177.286
20.7544 -47.8785 176.847
20.8048 -47.8186 177.278
20.8043 -47.6458 177.274
20.8038 -47.4729 177.27
20.8033 -47.3001 177.266
20.8028 -47.1273 177.262
20.8018 -46.7817 177.253
20.8013 -46.6089 177.249
20.8008 -46.4361 177.245
20.6271 -46.2656 177.221
20.6266 -46.0928 177.217
20.7994 -45.9178 177.233
20.7989 -45.7451 177.229
20.8495 -45.68 177.662
20.849 -45.5069 177.657
20.8485 -45.3337 177.653
20.7969 -45.0541 177.212
20.7964 -44.8814 177.208
20.8461 -44.4682 177.633
20.7229 -44.4022 178.048
20.7939 -44.018 177.187
20.7184 -42.841 178.011
20.7179 -42.6676 178.006
20.7175 -42.4942 178.002
20.717 -42.3207 177.998
20.7165 -42.1473 177.994
20.5927 -42.0757 178.411
20.5922 -41.9019 178.407
20.6423 -41.6532 178.841
20.5908 -41.3805 178.394
20.5903 -41.2068 178.39
20.5898 -41.033 178.386
20.7622 -40.3359 178.389
20.6373 -39.9116 178.8
20.6369 -39.7375 178.795
20.6364 -39.5634 178.791
20.6354 -39.2152 178.783
20.5109 -39.1362 179.203
20.6344 -38.867 178.774
20.6339 -38.693 178.77
20.58 -37.5595 178.303
20.5795 -37.3859 178.299
20.4552 -37.3027 178.717
20.4547 -37.1287 178.713
20.6792 -35.7342 179.146
20.8524 -35.0349 179.149
20.6738 -33.8169 179.099
21.5952 -26.8037 168.728
21.6564 -25.8657 167.939
21.5417 -25.7614 168.31
21.5412 -25.5977 168.306
21.5407 -25.434 168.303
21.5402 -25.2703 168.299
21.5903 -25.163 168.691
21.7042 -24.9415 168.311
21.7037 -24.7779 168.307
21.5888 -24.6709 168.68
21.5883 -24.5069 168.676
21.5879 -24.3429 168.672
21.5874 -24.1789 168.668
21.472 -24.0703 169.042
21.4715 -23.906 169.038
21.471 -23.7416 169.035
21.6998 -23.4689 168.278
21.5849 -23.359 168.65
21.4695 -23.2486 169.024
21.469 -23.0843 169.02
21.4685 -22.92 169.016
21.4681 -22.7557 169.012
21.4676 -22.5914 169.009
21.4671 -22.4271 169.005
21.4666 -22.2628 169.001
21.4661 -22.0985 168.997
21.5162 -21.9837 169.392
21.5158 -21.819 169.389
21.5153 -21.6544 169.385
21.7444 -21.3907 168.625
21.6293 -21.2759 168.998
21.6289 -21.1116 168.995
21.6284 -20.9474 168.991
21.6279 -20.7832 168.987
21.5123 -20.6668 169.362
21.4613 -20.4562 168.96
21.5114 -20.3376 169.355
21.5617 -20.2186 169.751
21.5612 -20.0537 169.748
21.5607 -19.8887 169.744
21.3939 -19.7252 169.72
21.444 -19.6045 170.119
21.3929 -19.3954 169.713
21.4431 -19.2739 170.111
21.3919 -19.0656 169.705
21.2908 -18.8158 168.903
21.6216 -18.6491 168.939
21.672 -18.5266 169.333
21.6715 -18.3621 169.329
21.5559 -18.24 169.706
21.6064 -18.1159 170.104
21.6059 -17.9507 170.101
21.6054 -17.7855 170.097
21.3727 -17.703 170.863
21.3722 -17.537 170.859
21.3717 -17.3711 170.855
21.3712 -17.2051 170.852
21.3708 -17.0392 170.848
21.4866 -16.8338 170.458
21.4862 -16.6683 170.454
21.4857 -16.5028 170.451
21.4852 -16.3373 170.447
21.3683 -16.2097 170.829
21.4188 -16.0803 171.232
21.3012 -15.9516 171.618
21.3007 -15.7849 171.614
21.3002 -15.6183 171.61
21.4168 -15.4153 171.217
21.2325 -15.3563 172.406
21.232 -15.1889 172.402
21.2315 -15.0216 172.398
21.466 -14.7841 171.61
21.1123 -14.7218 172.785
21.1118 -14.5541 172.781
21.3473 -14.3182 171.99
21.2801 -14.2174 172.793
21.2796 -14.0497 172.789
21.1607 -13.9151 173.182
21.2113 -13.7787 173.596
21.2108 -13.6102 173.592
21.2103 -13.4418 173.588
21.1754 -13.151 171.943
21.1075 -13.0448 172.746
21.0564 -12.8477 172.328
21.174 -12.6504 171.931
21.2911 -12.4539 171.537
21.173 -12.3166 171.924
21.6039 -8.10533 167.539
21.6034 -7.94279 167.535
21.4888 -7.79854 167.904
21.4883 -7.63564 167.9
21.6525 -7.47175 167.916
21.8791 -7.27458 167.169
21.4864 -6.98412 167.885
21.7137 -6.78918 167.139
21.6628 -6.61246 166.747
21.678 -3.09458 164.413
21.6775 -2.93512 164.41
21.6149 -2.78847 165.144
21.6144 -2.62832 165.141
21.6139 -2.46817 165.137
21.5637 -2.30309 164.754
21.6751 -2.1379 164.392
21.786 -1.97345 164.031
21.7856 -1.81439 164.028
21.896 -1.65102 163.669
21.7846 -1.49628 164.021
21.7841 -1.33724 164.017
21.8941 -1.01627 163.655
21.7329 -0.858425 163.632
21.7935 -0.696195 162.903
21.8927 -0.540284 163.645
21.8922 -0.381634 163.641
22.0524 -0.222184 163.657
21.8912 -0.0643557 163.634
21.9409 0.0946284 164.005
21.8903 0.252896 163.627
22.0505 0.412303 163.643
22.05 0.570908 163.64
22.0495 0.729506 163.636
21.9988 0.886015 163.26
22.1082 1.04261 162.904
21.8874 1.20449 163.606
21.9974 1.36071 163.249
21.9969 1.51893 163.246
22.1063 1.67411 162.891
22.2734 1.97798 161.818
22.2144 2.1436 162.53
22.1044 2.3055 162.877
22.0538 2.45784 162.504
22.0034 2.60951 162.132
22.0029 2.76665 162.129
22.0024 2.92378 162.125
22.002 3.0809 162.122
22.0015 3.23801 162.118
22.1102 3.38836 161.768
22.1097 3.54511 161.765
22.05 3.7175 162.476
22.4839 3.84382 161.087
22.1584 4.02418 162.121
21.9987 4.18056 162.098
22.1074 4.32881 161.748
22.157 4.49537 162.11
22.0472 4.66197 162.456
21.9968 4.80879 162.084
21.7886 27.2393 165.257
21.5075 29.5377 165.55
21.6389 31.8781 167.81
21.5846 46.4078 168.65
20.859 -48.9713 177.74
20.8585 -48.798 177.736
20.9801 -48.5077 177.314
21.1012 -48.2187 176.894
21.1007 -48.0463 176.89
21.1002 -47.8738 176.886
20.9771 -47.4706 177.289
20.9766 -47.2978 177.285
20.9761 -47.125 177.281
20.9756 -46.9522 177.277
20.9741 -46.4338 177.265
20.9736 -46.261 177.261
21.0947 -45.9776 176.841
21.0942 -45.8052 176.837
20.9722 -45.7428 177.248
20.9717 -45.57 177.244
21.0922 -45.116 176.82
21.0917 -44.9437 176.816
21.0912 -44.7714 176.812
21.0907 -44.5991 176.808
21.0902 -44.4268 176.804
21.0897 -44.2546 176.8
20.9642 -42.98 177.182
20.8915 -42.492 178.022
20.8166 -41.4768 178.857
20.8876 -41.105 177.989
20.9922 -40.6922 178.862
20.9917 -40.518 178.858
20.9887 -39.4733 178.833
20.865 -39.395 179.254
21.1082 -38.3357 178.385
20.9851 -38.2549 178.804
20.8615 -38.1737 179.224
20.9128 -38.0899 179.667
20.7884 -38.0079 180.092
20.9118 -37.7402 179.658
20.7874 -37.6574 180.083
20.7869 -37.4821 180.079
20.9103 -37.2157 179.646
20.9098 -37.0409 179.641
21.0326 -36.7762 179.21
20.9088 -36.6913 179.633
20.9083 -36.5165 179.629
20.7838 -36.4307 180.053
20.7833 -36.2555 180.049
20.7312 -35.9942 179.596
21.1002 -35.5588 178.318
20.7297 -35.47 179.584
20.7277 -34.7711 179.567
20.9736 -34.2542 178.707
20.8499 -34.1635 179.128
20.8494 -33.9892 179.123
21.6413 -29.8646 170.374
21.7665 -28.772 168.792
21.766 -28.6078 168.789
21.7655 -28.4436 168.785
21.8162 -28.3431 169.179
21.7 -27.9139 169.547
21.6995 -27.749 169.544
21.8138 -27.5204 169.16
21.8133 -27.3559 169.156
21.9892 -27.0061 168.004
21.8751 -26.9044 168.375
21.7606 -26.8022 168.748
21.7601 -26.6381 168.744
21.7596 -26.474 168.74
21.7082 -26.251 168.341
21.7586 -26.1458 168.733
21.7581 -25.9818 168.729
21.7067 -25.7599 168.33
21.7062 -25.5962 168.326
21.7566 -25.4896 168.718
21.7562 -25.3255 168.714
21.7557 -25.1615 168.71
21.7552 -24.9975 168.707
21.8687 -24.7764 168.327
21.7542 -24.6694 168.699
21.7537 -24.5054 168.695
21.8044 -24.3961 169.089
21.7527 -24.1774 168.688
21.6377 -24.0689 169.062
21.7517 -23.8495 168.68
21.8024 -23.7387 169.074
21.8019 -23.5744 169.07
21.8014 -23.41 169.066
21.8009 -23.2457 169.063
21.8004 -23.0814 169.059
21.6852 -22.9702 169.434
21.7994 -22.7528 169.051
21.7989 -22.5885 169.048
21.7985 -22.4242 169.044
21.7468 -22.2101 168.643
21.6954 -21.9969 168.244
21.6442 -21.7846 167.847
21.7965 -21.7672 169.029
21.796 -21.6029 169.025
21.7955 -21.4387 169.021
21.795 -21.2745 169.018
21.7945 -21.1102 169.014
21.794 -20.946 169.01
21.7935 -20.7818 169.006
21.6784 -20.6654 169.382
21.6779 -20.5008 169.378
21.6774 -20.3363 169.374
21.6769 -20.1717 169.371
21.7911 -19.9609 168.988
21.6759 -19.8426 169.363
21.6754 -19.6781 169.359
21.7896 -19.4684 168.977
21.6745 -19.349 169.352
21.84 -19.1832 169.367
21.8395 -19.0187 169.364
21.9533 -18.8105 168.981
21.6083 -18.7768 170.12
21.6079 -18.6116 170.116
21.6074 -18.4464 170.112
21.6069 -18.2812 170.108
21.6576 -18.157 170.508
21.6571 -17.9914 170.504
21.6566 -17.8258 170.5
21.6562 -17.6602 170.497
21.6557 -17.4947 170.493
21.6552 -17.3291 170.489
21.6547 -17.1636 170.485
21.5382 -17.0379 170.867
21.589 -16.9104 171.271
21.5885 -16.7441 171.267
21.588 -16.5778 171.263
21.5875 -16.4115 171.259
21.587 -16.2453 171.255
21.5866 -16.079 171.252
21.5861 -15.9128 171.248
21.5991 -15.6386 170.048
21.4684 -15.617 171.629
21.4679 -15.4504 171.626
21.5188 -15.3187 172.032
21.5183 -15.1517 172.029
21.4004 -15.0203 172.418
21.3999 -14.853 172.414
21.3995 -14.6856 172.41
21.399 -14.5183 172.406
21.3473 -14.3182 171.99
21.3313 -14.25 173.209
21.3308 -14.0819 173.205
21.2791 -13.882 172.785
21.2277 -13.6829 172.367
21.1764 -13.4848 171.951
21.1759 -13.3179 171.947
21.1754 -13.151 171.943
21.175 -12.9841 171.939
21.1745 -12.8172 171.935
21.2916 -12.6204 171.541
21.342 -12.4823 171.947
21.881 -7.9232 167.184
21.8805 -7.76103 167.18
21.7668 -7.61672 167.547
21.8796 -7.43672 167.173
21.8786 -7.11244 167.165
21.8781 -6.95031 167.162
21.7644 -6.8042 167.529
21.7639 -6.64172 167.525
21.8767 -6.46396 167.151
21.7615 -5.82941 167.507
21.871 -4.51922 167.107
22.1571 -4.3972 165.62
22.1566 -4.23663 165.616
22.1041 -3.98676 165.23
22.1046 -3.90704 165.228
22.1041 -3.74685 165.224
22.0022 -3.57123 164.463
22.0018 -3.41175 164.459
21.7779 -3.10792 165.171
21.7775 -2.94776 165.168
21.777 -2.7876 165.164
21.8882 -2.62094 164.8
22.2198 -2.44289 163.725
22.2193 -2.28416 163.722
21.9979 -2.13619 164.431
21.9974 -1.97677 164.427
21.9466 -1.81354 164.048
21.896 -1.65102 163.669
22.1159 -1.48446 162.96
22.1154 -1.32647 162.956
21.8337 -1.18064 164.39
21.8332 -1.02126 164.387
22.1644 -0.854241 163.317
22.0035 -0.696749 163.295
22.1634 -0.537628 163.31
22.2135 -0.380011 163.68
22.0524 -0.222184 163.657
22.4311 0.0967527 162.963
22.4306 0.25467 162.96
22.2111 0.413095 163.662
22.3204 0.571088 163.305
22.2102 0.730289 163.655
22.2097 0.888877 163.652
22.1586 1.04503 163.276
22.1582 1.20326 163.272
22.1577 1.36148 163.269
22.1572 1.51969 163.265
22.1567 1.6779 163.262
22.1562 1.8361 163.258
22.1558 1.9943 163.255
22.4882 2.43904 161.118
22.3798 2.60016 161.459
22.4299 2.76271 161.82
22.4295 2.91948 161.817
22.1021 3.09458 162.859
22.1016 3.25238 162.856
22.3195 3.39654 162.154
22.4275 3.54653 161.803
22.2096 3.71821 162.495
22.2091 3.87564 162.492
22.2087 4.03305 162.489
22.3171 4.18194 162.136
22.3167 4.339 162.133
22.3162 4.49606 162.13
22.3157 4.6531 162.126
22.3152 4.81014 162.123
22.3654 4.97809 162.487
21.7049 30.7687 167.07
21.6128 40.9323 167.606
21.7423 49.0037 168.61
21.1007 -48.0463 176.89
21.1519 -47.9867 177.321
21.2034 -47.9268 177.754
20.9761 -47.125 177.281
20.9756 -46.9522 177.277
21.0957 -46.3223 176.849
21.1984 -46.1947 177.713
21.1459 -45.9132 177.272
21.0937 -45.6329 176.833
21.0932 -45.4606 176.828
21.0927 -45.2883 176.824
21.0922 -45.116 176.82
21.1435 -45.0496 177.251
21.0912 -44.7714 176.812
21.0907 -44.5991 176.808
21.0902 -44.4268 176.804
21.1415 -44.3588 177.235
21.141 -44.1862 177.231
21.0887 -43.9101 176.792
21.0182 -43.9467 177.64
21.0178 -43.7736 177.636
21.139 -43.4956 177.214
21.3121 -42.3728 177.212
20.9426 -42.419 178.459
20.8885 -41.4517 177.997
21.1174 -41.4622 178.46
20.9942 -41.3889 178.879
20.9922 -40.6922 178.862
21.0618 -40.1509 177.99
20.9389 -40.0745 178.407
20.9902 -39.9956 178.846
20.9882 -39.2992 178.829
21.1082 -38.3357 178.385
20.9851 -38.2549 178.804
20.8615 -38.1737 179.224
20.9128 -38.0899 179.667
21.0357 -37.8226 179.235
21.0352 -37.6482 179.231
20.9113 -37.5654 179.654
21.0342 -37.2994 179.223
21.0337 -37.125 179.219
20.9098 -37.0409 179.641
20.9093 -36.8661 179.637
20.9088 -36.6913 179.633
20.9083 -36.5165 179.629
21.0311 -36.2531 179.198
20.9073 -36.1669 179.62
21.0301 -35.9044 179.189
21.1524 -35.6432 178.76
21.1519 -35.4693 178.756
21.1514 -35.2954 178.752
21.9324 -28.9346 168.815
21.8177 -28.8367 169.19
21.8172 -28.6722 169.186
21.702 -28.5735 169.562
21.7015 -28.4086 169.559
21.8157 -28.1785 169.175
21.8152 -28.014 169.171
21.8147 -27.8495 169.167
21.8142 -27.6849 169.164
21.8138 -27.5204 169.16
22.1028 -27.1073 167.635
21.7616 -27.1304 168.755
21.7611 -26.9663 168.751
21.8118 -26.8625 169.145
22.0392 -26.5753 168.387
21.925 -26.4724 168.759
21.9245 -26.3083 168.756
21.8098 -26.2046 169.13
21.7581 -25.9818 168.729
21.922 -25.488 168.737
21.8073 -25.3825 169.111
22.0963 -24.9888 167.587
22.0958 -24.8259 167.583
21.8687 -24.7764 168.327
21.7032 -24.6142 168.304
21.7537 -24.5054 168.695
21.7532 -24.3414 168.692
21.8039 -24.2318 169.085
21.8034 -24.0674 169.081
21.8029 -23.9031 169.078
21.8024 -23.7387 169.074
21.8019 -23.5744 169.07
21.8014 -23.41 169.066
21.8523 -23.2981 169.461
21.8518 -23.1334 169.458
21.7999 -22.9171 169.055
21.7994 -22.7528 169.051
21.7478 -22.5379 168.651
21.7473 -22.374 168.647
21.7468 -22.2101 168.643
21.7975 -22.0957 169.036
21.797 -21.9314 169.033
21.7965 -21.7672 169.029
21.796 -21.6029 169.025
21.7955 -21.4387 169.021
21.6803 -21.3238 169.397
21.731 -21.2069 169.794
21.794 -20.946 169.01
21.7935 -20.7818 169.006
21.8444 -20.664 169.401
21.8439 -20.4994 169.397
21.8434 -20.3349 169.394
21.8429 -20.1703 169.39
22.0706 -19.9134 168.629
22.0184 -19.7055 168.231
22.0696 -19.5858 168.622
21.9553 -19.467 168.996
21.8405 -19.3477 169.371
21.7252 -19.2278 169.748
21.7247 -19.0629 169.745
21.839 -18.8542 169.36
21.8385 -18.6897 169.356
21.9009 -18.4409 168.577
21.9518 -18.3182 168.97
21.6581 -18.3225 170.512
21.6576 -18.157 170.508
21.6571 -17.9914 170.504
21.6566 -17.8258 170.5
21.6562 -17.6602 170.497
21.6557 -17.4947 170.493
21.6552 -17.3291 170.489
21.6547 -17.1636 170.485
21.6542 -16.998 170.481
21.6537 -16.8325 170.478
21.7047 -16.7048 170.879
21.6395 -16.6155 171.672
21.639 -16.4489 171.668
21.6385 -16.2823 171.664
21.6381 -16.1156 171.66
21.6508 -15.8395 170.455
21.4178 -15.7478 171.224
21.5198 -15.6527 172.04
21.5708 -15.5211 172.449
21.5703 -15.3537 172.445
21.5183 -15.1517 172.029
21.4665 -14.9507 171.614
21.3999 -14.853 172.414
21.4509 -14.7193 172.824
21.399 -14.5183 172.406
21.3473 -14.3182 171.99
21.2959 -14.1191 171.575
21.3464 -13.9843 171.982
21.397 -13.849 172.391
21.4626 -13.6182 171.583
21.411 -13.4212 171.171
21.2267 -13.3483 172.359
21.2262 -13.1811 172.355
21.2257 -13.0138 172.352
21.343 -12.816 171.955
21.8191 -8.12231 167.95
21.7677 -7.94177 167.555
21.8805 -7.76103 167.18
21.8688 -7.6506 168.333
22.0026 -7.36959 165.667
21.9297 -7.12818 167.556
21.9292 -6.96569 167.552
22.1061 -4.38766 165.239
21.8806 -4.00593 165.956
21.942 -3.74776 165.205
21.891 -3.57983 164.822
21.941 -3.42738 165.198
21.9405 -3.26721 165.194
21.8896 -3.10036 164.811
21.8891 -2.94054 164.807
21.8886 -2.78074 164.804
22.0499 -2.62007 164.82
22.1603 -2.45417 164.457
21.9984 -2.29561 164.435
21.8867 -2.1416 164.79
21.9974 -1.97677 164.427
22.1077 -1.81269 164.067
22.1072 -1.65364 164.063
22.2169 -1.49065 163.704
21.9452 -1.3364 164.037
22.0552 -1.17412 163.678
21.9442 -1.01835 164.03
22.0543 -0.856781 163.671
21.8931 -0.69894 163.648
21.8927 -0.540284 163.645
22.0529 -0.380823 163.661
22.0524 -0.222184 163.657
22.2126 -0.0627486 163.673
22.3218 0.0963136 163.316
22.3214 0.254579 163.312
22.2111 0.413095 163.662
22.2107 0.571695 163.659
22.2102 0.730289 163.655
22.2097 0.888877 163.652
22.2682 1.04338 162.924
22.2172 1.19851 162.55
22.2673 1.35914 162.917
22.1572 1.51969 163.265
22.1567 1.6779 163.262
22.3238 1.9824 162.184
22.374 2.14434 162.549
22.4314 2.29233 161.83
22.4309 2.44913 161.827
22.2129 2.61605 162.519
22.271 2.76198 161.801
22.2705 2.91876 161.798
22.3205 3.08234 162.16
22.32 3.23944 162.157
22.3195 3.39654 162.154
22.319 3.55364 162.15
22.3692 3.71891 162.514
22.3687 3.87633 162.511
22.3682 4.03375 162.508
22.3678 4.19115 162.504
22.3167 4.339 162.133
22.3162 4.49606 162.13
22.3157 4.6531 162.126
22.4745 4.81081 162.142
22.474 4.96784 162.138
22.3649 5.13545 162.484
21.999 28.0991 165.639
22.1063 29.4725 165.245
