3.49473 27.8129 160.89 193 184 175
3.34575 27.9488 161.223 193 184 175
3.34512 28.0255 161.216 193 184 175
3.0428 28.7309 161.532 193 184 175
2.74169 28.9311 162.211 193 184 175
3.1907 28.8227 161.177 193 184 175
3.19001 28.8993 161.17 193 184 175
2.90465 29.3162 162.627 193 184 175
2.9046 29.4759 162.624 193 184 175
2.75334 29.6994 162.968 193 184 175
2.75265 29.7767 162.961 193 184 175
2.60831 30.2369 163.708 193 184 175
2.6076 30.3146 163.701 193 184 175
2.60756 30.4752 163.697 193 184 175
2.6138 30.707 164.09 193 184 175
2.61375 30.8681 164.086 193 184 175
2.60048 30.8029 163.289 193 184 175
2.60043 30.9632 163.286 193 184 175
2.90339 30.9896 162.586 193 184 175
2.5989 31.2783 163.267 193 184 175
2.31281 32.1316 165.18 193 184 175
2.31203 32.2098 165.172 193 184 175
2.30567 32.2128 164.764 193 184 175
2.30563 32.3745 164.76 193 184 175
2.30558 32.5362 164.757 193 184 175
2.3048 32.6142 164.749 193 184 175
2.14953 32.7637 165.098 193 184 175
2.14875 32.8419 165.09 193 184 175
2.6094 32.7057 164.018 193 184 175
2.48042 33.842 165.605 193 184 175
2.01196 34.2237 166.675 193 184 175
2.01111 34.3025 166.667 193 184 175
2.00537 34.3005 166.251 193 184 175
2.16646 34.4687 166.292 193 184 175
2.0102 34.7082 166.652 193 184 175
2.01017 34.8717 166.649 193 184 175
2.01505 35.1178 167.055 193 184 175
2.01011 35.1986 166.642 193 184 175
2.01009 35.362 166.638 193 184 175
2.01497 35.6093 167.044 193 184 175
2.01494 35.7731 167.041 193 184 175
2.01491 35.9369 167.037 193 184 175
2.00998 36.0157 166.624 193 184 175
2.31509 36.1762 165.48 193 184 175
2.15991 36.4184 165.837 193 184 175
2.15465 36.4954 165.429 193 184 175
2.00403 36.8245 166.191 193 184 175
1.99915 36.9008 165.782 193 184 175
2.46342 36.8208 164.704 193 184 175
2.62313 36.9876 164.745 193 184 175
2.31485 37.3121 165.456 193 184 175
2.32043 37.5621 165.857 193 184 175
2.32039 37.7247 165.853 193 184 175
2.16488 37.9708 166.211 193 184 175
2.00869 38.2179 166.571 193 184 175
2.00867 38.3812 166.567 193 184 175
2.47507 38.2909 165.48 193 184 175
2.62916 38.3689 165.118 193 184 175
2.0086 38.8711 166.557 193 184 175
2.01347 39.1264 166.963 193 184 175
2.01345 39.2901 166.959 193 184 175
2.15318 39.0063 165.369 193 184 175
2.30232 38.9918 164.608 193 184 175
2.30784 39.2445 165.005 193 184 175
2.61523 39.2347 164.291 193 184 175
2.61519 39.3957 164.287 193 184 175
2.15304 39.8169 165.352 193 184 175
2.15301 39.979 165.349 193 184 175
2.15298 40.1411 165.345 193 184 175
2.61504 40.0399 164.274 193 184 175
2.6213 40.2944 164.669 193 184 175
2.15811 40.7225 165.739 193 184 175
2.00236 40.975 166.096 193 184 175
2.62007 40.6945 164.653 193 184 175
2.61487 40.8449 164.257 193 184 175
2.62113 41.1013 164.652 193 184 175
2.62741 41.3588 165.048 193 184 175
2.31859 41.7031 165.762 193 184 175
2.31857 41.8655 165.759 193 184 175
2.62731 41.8439 165.038 193 184 175
2.61968 42.3078 164.619 193 184 175
2.61846 42.385 164.61 193 184 175
2.61724 42.4623 164.601 193 184 175
2.62834 43.0601 165.02 193 184 175
2.62707 43.1374 165.011 193 184 175
2.62581 43.2147 165.002 193 184 175
2.61947 43.2755 164.599 193 184 175
2.61944 43.4368 164.596 193 184 175
2.15128 43.783 165.261 193 184 175
2.61938 43.7593 164.589 193 184 175
2.61935 43.9205 164.585 193 184 175
2.61932 44.0817 164.582 193 184 175
2.61175 44.0564 164.175 193 184 175
2.62555 44.5076 164.975 193 184 175
2.62552 44.6692 164.972 193 184 175
2.62419 44.7463 164.962 193 184 175
2.31425 45.0206 165.669 193 184 175
2.31948 45.5222 165.691 193 184 175
2.62538 45.477 164.955 193 184 175
2.61147 45.3429 164.148 193 184 175
2.61144 45.5037 164.145 193 184 175
2.30426 45.8643 164.851 193 184 175
2.30424 46.0258 164.847 193 184 175
2.61135 45.9861 164.135 193 184 175
2.46398 46.3553 164.885 193 184 175
2.15479 46.7213 165.597 193 184 175
2.15477 46.8834 165.594 193 184 175
1.99916 47.1493 165.951 193 184 175
1.99915 47.3118 165.947 193 184 175
1.99913 47.4743 165.944 193 184 175
2.4624 47.401 164.855 193 184 175
2.6111 47.4328 164.105 193 184 175
2.46968 47.9199 165.255 193 184 175
2.00389 48.4003 166.333 193 184 175
2.61565 48.9079 164.465 193 184 175
2.00864 49.82 166.714 193 184 175
1.9975 49.6638 165.89 193 184 175
1.99748 49.8262 165.886 193 184 175
2.00227 50.106 166.289 193 184 175
0.419299 -50.3154 178.167 193 184 175
0.422071 -50.2305 178.171 193 184 175
0.0811926 -50.3869 179.013 193 184 175
0.0839695 -50.3016 179.018 193 184 175
0.432077 -49.5901 177.72 193 184 175
0.427196 -49.077 176.786 193 184 175
0.428979 -49.1462 177.703 193 184 175
0.0888862 -49.12 178.536 193 184 175
0.0916177 -49.035 178.54 193 184 175
0.424775 -48.2297 177.215 193 184 175
0.427466 -48.1452 177.219 193 184 175
0.432084 -48.3015 178.149 193 184 175
0.260587 -48.2404 178.562 193 184 175
0.0882196 -48.0581 178.509 193 184 175
0.430768 -47.6524 177.671 193 184 175
0.431621 -47.5953 178.131 193 184 175
0.0879689 -47.6469 178.964 193 184 175
0.0878621 -47.4696 178.959 193 184 175
0.087756 -47.2922 178.955 193 184 175
0.0876504 -47.1149 178.95 193 184 175
0.0875454 -46.9375 178.946 193 184 175
0.0874409 -46.7602 178.941 193 184 175
0.087337 -46.5829 178.937 193 184 175
0.0872336 -46.4056 178.932 193 184 175
0.0871308 -46.2282 178.928 193 184 175
0.0870286 -46.051 178.923 193 184 175
0.0868447 -45.7585 178.451 193 184 175
0.0867429 -45.5817 178.447 193 184 175
0.0866416 -45.4049 178.442 193 184 175
0.0866252 -45.3419 178.906 193 184 175
0.0864408 -45.0512 178.433 193 184 175
0.0863412 -44.8745 178.429 193 184 175
0.0862422 -44.6977 178.424 193 184 175
-0.259603 -44.7356 179.26 193 184 175
-0.0864181 -44.4508 178.835 193 184 175
-0.259873 -44.2027 179.246 193 184 175
-0.260783 -44.1365 179.714 193 184 175
-0.260871 -43.9585 179.71 193 184 175
-0.260958 -43.7804 179.705 193 184 175
-0.260226 -43.4924 179.229 193 184 175
-0.259362 -43.6268 180.179 193 184 175
-0.260274 -43.5587 180.651 193 184 175
-0.259546 -43.2698 180.17 193 184 175
0.0904393 -42.9753 179.325 193 184 175
-0.0804124 -42.9933 179.751 193 184 175
-0.0907573 -42.4473 179.716 193 184 175
-0.0883066 -42.3613 179.719 193 184 175
-0.0858563 -42.2753 179.722 193 184 175
-0.0859487 -42.0973 179.718 193 184 175
0.0898096 -41.9099 179.298 193 184 175
0.0922491 -41.8241 179.301 193 184 175
0.0946883 -41.7383 179.304 193 184 175
0.0971271 -41.6525 179.307 193 184 175
0.0995656 -41.5668 179.31 193 184 175
0.102004 -41.481 179.314 193 184 175
0.104442 -41.3953 179.317 193 184 175
0.106879 -41.3096 179.32 193 184 175
0.109317 -41.2239 179.323 193 184 175
0.238585 -38.4936 177.824 193 184 175
0.4116 -38.3164 177.413 193 184 175
0.243112 -38.3227 177.829 193 184 175
0.245375 -38.2373 177.832 193 184 175
0.247638 -38.1519 177.834 193 184 175
0.0783648 -38.1579 178.253 193 184 175
0.0806305 -38.0723 178.256 193 184 175
0.082896 -37.9868 178.258 193 184 175
0.427414 -37.7202 177.43 193 184 175
0.087426 -37.8157 178.263 193 184 175
0.429574 -37.4594 177.428 193 184 175
0.0872427 -37.4628 178.254 193 184 175
0.0894925 -37.3773 178.257 193 184 175
0.0917419 -37.2918 178.259 193 184 175
0.0939912 -37.2063 178.262 193 184 175
0.438453 -36.9434 177.434 193 184 175
0.419905 -36.0448 177.376 193 184 175
0.251388 -36.0457 177.792 193 184 175
0.424259 -35.8744 177.381 193 184 175
0.426437 -35.7892 177.383 193 184 175
0.257929 -35.7895 177.799 193 184 175
0.256693 -35.4363 176.872 193 184 175
0.0862748 -35.5227 178.206 193 184 175
0.259916 -35.3523 177.793 193 184 175
0.262082 -35.2669 177.795 193 184 175
0.434917 -35.0975 177.383 193 184 175
0.441405 -34.8421 177.389 193 184 175
1.07885 -32.1976 172.562 193 184 175
1.41876 -31.9551 172.661 193 184 175
1.09014 -31.933 173.442 193 184 175
1.09003 -31.7615 173.438 193 184 175
1.41492 -31.3666 172.212 193 184 175
1.57753 -31.124 171.819 193 184 175
1.41469 -31.026 172.204 193 184 175
1.41458 -30.8557 172.2 193 184 175
1.41447 -30.6853 172.195 193 184 175
1.41436 -30.515 172.191 193 184 175
1.41425 -30.3447 172.187 193 184 175
1.41414 -30.1745 172.183 193 184 175
1.73442 -29.7936 170.974 193 184 175
1.73003 -29.5534 170.542 193 184 175
1.40684 -29.5206 171.304 193 184 175
1.40673 -29.3512 171.3 193 184 175
1.56852 -29.1144 170.912 193 184 175
1.72531 -28.8097 170.099 193 184 175
1.56443 -28.7073 170.476 193 184 175
1.56432 -28.5387 170.472 193 184 175
1.39929 -28.3673 170.421 193 184 175
1.40263 -28.2666 170.846 193 184 175
1.40599 -28.1654 171.272 193 184 175
1.40589 -27.996 171.268 193 184 175
1.72008 -27.2307 169.639 193 184 175
1.73039 -27.2793 170.491 193 184 175
1.73028 -27.1108 170.487 193 184 175
1.73016 -26.9422 170.483 193 184 175
1.5726 -26.5615 171.284 193 184 175
1.41025 -26.4534 171.665 193 184 175
1.40634 -25.7125 171.217 193 184 175
1.40624 -25.5433 171.213 193 184 175
1.40963 -25.4353 171.641 193 184 175
1.88002 -24.9118 169.213 193 184 175
1.87991 -24.7446 169.209 193 184 175
1.8798 -24.5773 169.205 193 184 175
1.87969 -24.4101 169.201 193 184 175
1.55971 -24.3542 169.952 193 184 175
1.55961 -24.1862 169.948 193 184 175
1.56336 -24.0758 170.37 193 184 175
1.56326 -23.9075 170.366 193 184 175
1.72383 -23.6845 169.982 193 184 175
1.71948 -23.4604 169.554 193 184 175
1.55911 -23.3464 169.928 193 184 175
1.39802 -23.2318 170.304 193 184 175
1.56277 -23.0657 170.346 193 184 175
1.56827 -23.0388 170.775 193 184 175
1.4064 -22.923 171.154 193 184 175
1.56807 -22.7013 170.767 193 184 175
1.729 -22.4806 170.381 193 184 175
1.56786 -22.3638 170.759 193 184 175
1.56776 -22.1951 170.755 193 184 175
1.73298 -22.0284 170.797 193 184 175
1.57146 -21.9103 171.177 193 184 175
1.72848 -21.639 170.362 193 184 175
1.72838 -21.4707 170.358 193 184 175
1.72827 -21.3024 170.354 193 184 175
1.56716 -21.183 170.731 193 184 175
1.56318 -20.964 170.3 193 184 175
1.55921 -20.7461 169.87 193 184 175
1.71933 -20.531 169.489 193 184 175
1.72777 -20.4611 170.334 193 184 175
1.40495 -20.387 171.095 193 184 175
1.40647 -20.3045 171.095 193 184 175
1.40128 -20.0008 170.657 193 184 175
1.40119 -19.8323 170.653 193 184 175
1.4011 -19.6637 170.649 193 184 175
1.56232 -19.4501 170.264 193 184 175
1.55836 -19.2359 169.835 193 184 175
1.55826 -19.0681 169.831 193 184 175
1.56592 -18.9911 170.68 193 184 175
1.56738 -18.9088 170.68 193 184 175
1.72825 -18.6969 170.295 193 184 175
1.72815 -18.5288 170.291 193 184 175
1.5632 -18.3591 170.241 193 184 175
1.56699 -18.2346 170.664 193 184 175
1.5708 -18.1096 171.09 193 184 175
1.40864 -17.9824 171.471 193 184 175
1.40854 -17.8131 171.467 193 184 175
1.40845 -17.6438 171.463 193 184 175
1.40485 -17.4325 171.027 193 184 175
1.39633 -17.0951 170.164 193 184 175
1.55857 -16.9737 169.784 193 184 175
1.55994 -16.8918 169.784 193 184 175
1.4045 -16.7571 171.012 193 184 175
1.40441 -16.5883 171.008 193 184 175
1.24195 -16.4577 171.388 193 184 175
1.08148 -16.3661 172.205 193 184 175
1.40909 -16.207 171.43 193 184 175
1.5657 -15.8761 170.61 193 184 175
1.72652 -15.6713 170.225 193 184 175
1.56552 -15.5393 170.602 193 184 175
1.40381 -15.4066 170.98 193 184 175
1.40373 -15.2379 170.976 193 184 175
1.40716 -15.1054 171.404 193 184 175
1.24884 -15.0943 172.224 193 184 175
1.41458 -14.8931 171.834 193 184 175
1.40333 -14.3941 170.957 193 184 175
1.4081 -14.3461 171.387 193 184 175
1.4045 -14.1429 170.952 193 184 175
1.72231 -13.3736 169.749 193 184 175
1.72651 -13.2376 170.17 193 184 175
1.72213 -13.0385 169.741 193 184 175
1.72333 -12.9566 169.74 193 184 175
1.72324 -12.7891 169.736 193 184 175
1.72314 -12.6216 169.732 193 184 175
1.72304 -12.4542 169.728 193 184 175
1.71868 -12.2575 169.301 193 184 175
2.34036 -10.3599 166.948 193 184 175
2.34025 -10.1952 166.944 193 184 175
2.02654 -10.0768 167.674 193 184 175
2.93108 -8.96022 163.873 193 184 175
2.92107 -7.64594 163.449 193 184 175
2.92801 -7.50187 163.841 193 184 175
2.91487 -7.3889 163.051 193 184 175
2.91476 -7.22803 163.047 193 184 175
2.91465 -7.06717 163.044 193 184 175
2.91454 -6.90632 163.04 193 184 175
2.91443 -6.74547 163.036 193 184 175
2.91432 -6.58463 163.033 193 184 175
3.21541 -6.39466 162.336 193 184 175
3.36396 -6.1388 161.986 193 184 175
3.3568 -6.04693 161.598 193 184 175
3.35668 -5.88753 161.595 193 184 175
2.9068 -5.7674 162.624 193 184 175
3.07196 -5.61966 163.056 193 184 175
2.9206 -5.47141 163.401 193 184 175
2.91348 -5.29817 163.005 193 184 175
3.51312 -5.09048 161.621 193 184 175
2.91328 -4.97663 162.998 193 184 175
2.91317 -4.81586 162.994 193 184 175
3.06396 -4.64435 162.643 193 184 175
3.06385 -4.48396 162.64 193 184 175
3.21399 -4.31355 162.291 193 184 175
3.21388 -4.15352 162.287 193 184 175
3.50486 -4.04725 161.213 193 184 175
3.19923 -3.89761 161.508 193 184 175
3.19151 -3.72996 161.12 193 184 175
3.19901 -3.57904 161.501 193 184 175
3.19129 -3.41212 161.113 193 184 175
3.19118 -3.25322 161.109 193 184 175
3.33172 -3.08018 160.386 193 184 175
3.33952 -2.92849 160.763 193 184 175
3.33941 -2.76994 160.76 193 184 175
3.19075 -2.61766 161.096 193 184 175
3.18307 -2.45335 160.71 193 184 175
3.20579 -2.31016 161.859 193 184 175
3.20568 -2.15058 161.856 193 184 175
3.20558 -1.991 161.852 193 184 175
3.19783 -1.82739 161.463 193 184 175
3.20537 -1.67187 161.845 193 184 175
3.21294 -1.51564 162.229 193 184 175
3.6509 -1.34213 160.815 193 184 175
3.64214 -1.18108 160.431 193 184 175
3.20496 -1.03368 161.831 193 184 175
3.35406 -0.871628 161.486 193 184 175
3.19712 -0.713139 161.439 193 184 175
3.4783 -0.628726 159.996 193 184 175
3.6166 -0.468425 159.282 193 184 175
3.77134 -0.310635 159.322 193 184 175
3.6249 -0.154535 159.652 193 184 175
3.63336 0.00300748 160.026 193 184 175
4.08093 0.162128 159.397 193 184 175
3.93506 0.319255 159.727 193 184 175
3.93495 0.476664 159.724 193 184 175
3.92557 0.632498 159.344 193 184 175
3.48556 0.792701 160.345 193 184 175
3.6413 0.951643 160.385 193 184 175
3.78815 1.10796 160.045 193 184 175
3.78804 1.26568 160.042 193 184 175
3.78793 1.42338 160.038 193 184 175
3.64087 1.58383 160.371 193 184 175
3.78771 1.73878 160.032 193 184 175
3.61496 1.88664 159.232 193 184 175
3.64055 2.0579 160.361 193 184 175
3.64045 2.21591 160.358 193 184 175
3.64034 2.37392 160.354 193 184 175
3.46039 2.43311 159.176 193 184 175
3.60651 2.58516 158.842 193 184 175
4.04146 2.72627 157.854 193 184 175
3.6063 2.89829 158.835 193 184 175
3.60619 3.05484 158.832 193 184 175
3.60608 3.21139 158.829 193 184 175
3.60598 3.36793 158.826 193 184 175
3.75148 3.51764 158.493 193 184 175
3.60576 3.681 158.819 193 184 175
4.0596 3.83252 158.571 193 184 175
4.05949 3.98874 158.568 193 184 175
3.7776 4.17085 159.601 193 184 175
3.77749 4.32807 159.598 193 184 175
3.92334 4.47639 159.261 193 184 175
4.06857 4.62406 158.927 193 184 175
3.63061 4.80933 159.922 193 184 175
3.77707 4.95692 159.584 193 184 175
3.77696 5.11411 159.581 193 184 175
3.77686 5.2713 159.578 193 184 175
3.91349 5.40527 158.868 193 184 175
3.75055 5.46786 158.45 193 184 175
3.88631 5.60007 157.75 193 184 175
3.89529 5.76851 158.115 193 184 175
3.89518 5.92429 158.112 193 184 175
4.03943 6.06787 157.782 193 184 175
3.75001 6.24837 158.433 193 184 175
3.7499 6.40446 158.43 193 184 175
3.7498 6.56053 158.427 193 184 175
3.74969 6.7166 158.424 193 184 175
3.74959 6.87267 158.42 193 184 175
3.74949 7.02872 158.417 193 184 175
3.91261 7.20271 158.828 193 184 175
3.76693 7.37413 159.156 193 184 175
4.20174 7.48503 158.164 193 184 175
3.9123 7.67192 158.818 193 184 175
4.05716 7.81238 158.485 193 184 175
3.91209 7.9847 158.812 193 184 175
3.91199 8.14108 158.808 193 184 175
4.05684 8.28053 158.476 193 184 175
3.92099 8.47297 159.175 193 184 175
3.77501 8.64744 159.505 193 184 175
4.0379 8.62985 157.726 193 184 175
4.02839 8.76548 157.356 193 184 175
3.89337 8.95873 158.046 193 184 175
3.76601 9.17439 159.116 193 184 175
3.74827 9.28897 158.367 193 184 175
3.74816 9.44493 158.364 193 184 175
3.89295 9.58125 158.033 193 184 175
3.89285 9.73686 158.03 193 184 175
3.89275 9.89246 158.027 193 184 175
3.89265 10.0481 158.023 193 184 175
3.74766 10.2246 158.348 193 184 175
4.20979 10.3867 158.471 193 184 175
4.20968 10.5426 158.468 193 184 175
4.05543 10.6965 158.423 193 184 175
3.77378 10.922 159.454 193 184 175
3.91951 11.056 159.119 193 184 175
3.91941 11.2126 159.115 193 184 175
4.05502 11.3202 158.41 193 184 175
4.04561 11.3707 158.036 193 184 175
3.75593 11.4938 158.688 193 184 175
3.4796 11.9937 160.104 193 184 175
3.47965 12.0706 160.1 193 184 175
3.78192 12.205 159.804 193 184 175
3.63508 12.388 160.136 193 184 175
3.61799 12.4084 159.378 193 184 175
3.62644 12.5938 159.75 193 184 175
3.6178 12.7222 159.371 193 184 175
3.76379 12.8523 159.036 193 184 175
3.76369 13.0088 159.033 193 184 175
3.62606 13.2226 159.737 193 184 175
3.62596 13.3798 159.734 193 184 175
3.62587 13.5369 159.731 193 184 175
3.63435 13.7252 160.105 193 184 175
3.33106 13.9093 160.395 193 184 175
3.77198 13.9792 159.387 193 184 175
3.63408 14.1978 160.095 193 184 175
3.78964 14.3578 160.134 193 184 175
3.64251 14.5458 160.468 193 184 175
3.64242 14.7036 160.464 193 184 175
3.64233 14.8614 160.461 193 184 175
3.34633 15.0826 161.135 193 184 175
3.19735 15.2733 161.473 193 184 175
3.19727 15.4322 161.469 193 184 175
3.1972 15.591 161.466 193 184 175
3.346 15.7166 161.122 193 184 175
3.78882 15.7751 160.105 193 184 175
3.76201 15.7446 158.972 193 184 175
3.76192 15.901 158.969 193 184 175
3.76182 16.0574 158.966 193 184 175
3.76173 16.2137 158.962 193 184 175
3.76164 16.3701 158.959 193 184 175
3.61553 16.561 159.287 193 184 175
3.62397 16.7555 159.66 193 184 175
3.62389 16.9126 159.657 193 184 175
3.61527 17.031 159.278 193 184 175
3.77004 17.1906 159.317 193 184 175
3.62363 17.3836 159.647 193 184 175
3.6321 17.5804 160.021 193 184 175
3.79655 17.781 160.439 193 184 175
3.79646 17.9387 160.436 193 184 175
3.64908 18.1347 160.77 193 184 175
3.64036 18.2512 160.386 193 184 175
3.78724 18.3701 160.047 193 184 175
3.64019 18.5665 160.38 193 184 175
3.78707 18.6848 160.04 193 184 175
3.64003 18.8819 160.373 193 184 175
3.63995 19.0395 160.37 193 184 175
3.61401 18.9868 159.233 193 184 175
3.46735 19.1835 159.563 193 184 175
3.46727 19.3404 159.559 193 184 175
3.61376 19.4565 159.223 193 184 175
3.46711 19.6542 159.553 193 184 175
3.46703 19.8111 159.55 193 184 175
3.47513 20.0133 159.923 193 184 175
3.48327 20.2163 160.299 193 184 175
3.47522 20.4085 159.919 193 184 175
3.62177 20.4419 159.579 193 184 175
3.77683 20.6021 159.619 193 184 175
3.77674 20.759 159.615 193 184 175
3.78557 20.9632 159.989 193 184 175
3.77658 21.0727 159.609 193 184 175
3.77649 21.2296 159.606 193 184 175
3.93161 21.3898 159.645 193 184 175
3.78524 21.5921 159.976 193 184 175
3.78516 21.7493 159.973 193 184 175
3.63818 21.9528 160.305 193 184 175
3.63811 22.1103 160.302 193 184 175
3.75798 21.9906 158.835 193 184 175
3.46548 22.2398 159.495 193 184 175
3.4654 22.3966 159.492 193 184 175
3.31787 22.52 159.82 193 184 175
3.19337 23.0439 161.302 193 184 175
3.62017 22.8705 159.525 193 184 175
3.75748 22.9273 158.815 193 184 175
3.47319 23.2329 159.852 193 184 175
3.48995 23.5776 160.61 193 184 175
3.78383 23.5544 159.931 193 184 175
3.77484 23.658 159.551 193 184 175
3.77476 23.8147 159.548 193 184 175
3.77468 23.9715 159.544 193 184 175
3.7835 24.1828 159.918 193 184 175
3.78342 24.3399 159.914 193 184 175
3.78334 24.497 159.911 193 184 175
3.78326 24.6541 159.908 193 184 175
3.78318 24.8112 159.905 193 184 175
3.34075 25.1273 160.913 193 184 175
3.19198 25.3392 161.249 193 184 175
3.18389 25.3581 160.86 193 184 175
3.79181 25.4971 160.27 193 184 175
3.79173 25.6545 160.266 193 184 175
3.79166 25.8119 160.263 193 184 175
3.19926 26.191 161.617 193 184 175
3.77319 25.928 159.499 193 184 175
3.77311 26.0847 159.496 193 184 175
3.77303 26.2413 159.493 193 184 175
3.18334 26.6222 160.833 193 184 175
3.03432 26.8372 161.17 193 184 175
3.19077 26.9997 161.21 193 184 175
3.19884 27.302 161.594 193 184 175
3.19823 27.3788 161.587 193 184 175
3.19057 27.4747 161.2 193 184 175
3.19051 27.633 161.196 193 184 175
3.19044 27.7913 161.193 193 184 175
3.48704 27.831 160.512 193 184 175
3.50353 28.1163 161.272 193 184 175
2.89799 28.4523 162.254 193 184 175
3.48625 28.2225 160.499 193 184 175
2.9124 28.9863 163.032 193 184 175
2.91173 29.0637 163.025 193 184 175
2.91167 29.2238 163.021 193 184 175
2.91162 29.3838 163.018 193 184 175
2.89767 29.4082 162.235 193 184 175
2.89761 29.5675 162.231 193 184 175
2.90449 29.7952 162.617 193 184 175
2.76649 30.1584 163.748 193 184 175
2.76644 30.3191 163.744 193 184 175
2.91829 30.414 163.39 193 184 175
2.91823 30.5743 163.387 193 184 175
2.75237 30.5766 162.944 193 184 175
2.59981 30.72 163.285 193 184 175
2.59909 30.7975 163.278 193 184 175
2.59838 30.875 163.27 193 184 175
2.61582 31.7621 164.085 193 184 175
2.61503 31.8398 164.078 193 184 175
2.61424 31.9175 164.07 193 184 175
2.61346 31.9952 164.063 193 184 175
2.91699 32.0946 163.349 193 184 175
2.92395 32.3295 163.74 193 184 175
2.61883 32.6316 164.442 193 184 175
2.3167 33.0134 165.554 193 184 175
2.31589 33.0917 165.546 193 184 175
2.31509 33.1701 165.538 193 184 175
2.31429 33.2485 165.53 193 184 175
2.64658 34.0047 166.046 193 184 175
2.6457 34.0832 166.038 193 184 175
2.64483 34.1617 166.03 193 184 175
2.01026 34.3813 166.659 193 184 175
2.17175 34.5499 166.7 193 184 175
2.48288 34.5608 165.971 193 184 175
2.17168 34.8768 166.693 193 184 175
2.17165 35.0403 166.69 193 184 175
2.17162 35.2038 166.686 193 184 175
2.48273 35.2117 165.958 193 184 175
2.48269 35.3745 165.954 193 184 175
2.17153 35.6941 166.676 193 184 175
2.48262 35.6999 165.947 193 184 175
2.48258 35.8626 165.944 193 184 175
2.333 36.1897 166.71 193 184 175
2.17671 36.4336 167.072 193 184 175
2.46957 36.0971 165.122 193 184 175
2.62333 36.1799 164.762 193 184 175
2.62329 36.3414 164.759 193 184 175
2.61694 36.4182 164.356 193 184 175
2.6169 36.5794 164.353 193 184 175
2.46342 36.8208 164.704 193 184 175
2.61682 36.9017 164.346 193 184 175
2.62942 37.2358 165.142 193 184 175
2.46926 37.3923 165.095 193 184 175
2.62301 37.4722 164.735 193 184 175
2.62199 37.5498 164.726 193 184 175
2.62293 37.7952 164.728 193 184 175
2.63559 38.1341 165.527 193 184 175
2.63555 38.2964 165.524 193 184 175
2.63552 38.4586 165.52 193 184 175
2.78929 38.5362 165.159 193 184 175
2.63544 38.783 165.514 193 184 175
2.63541 38.9452 165.51 193 184 175
2.61531 38.9125 164.297 193 184 175
2.61527 39.0736 164.294 193 184 175
2.61523 39.2347 164.291 193 184 175
2.61519 39.3957 164.287 193 184 175
2.30774 39.7298 164.994 193 184 175
2.77448 39.7234 164.324 193 184 175
2.77443 39.8845 164.321 193 184 175
2.31322 40.309 165.386 193 184 175
2.31319 40.4711 165.383 193 184 175
2.31317 40.6332 165.379 193 184 175
2.31314 40.7953 165.376 193 184 175
2.3187 41.0533 165.776 193 184 175
2.31867 41.2157 165.773 193 184 175
2.31865 41.3782 165.769 193 184 175
2.31862 41.5406 165.766 193 184 175
2.4793 41.709 165.806 193 184 175
2.47927 41.8714 165.803 193 184 175
2.47326 41.9357 165.396 193 184 175
2.47323 42.0978 165.393 193 184 175
2.62725 42.1673 165.031 193 184 175
2.61972 42.1465 164.623 193 184 175
2.46483 42.3161 164.97 193 184 175
2.31842 42.8399 165.738 193 184 175
2.46594 42.7237 164.968 193 184 175
2.31158 42.9794 165.323 193 184 175
2.31155 43.1414 165.319 193 184 175
2.31711 43.4047 165.719 193 184 175
2.31708 43.5671 165.716 193 184 175
2.31147 43.6273 165.309 193 184 175
2.61941 43.598 164.592 193 184 175
2.61938 43.7593 164.589 193 184 175
2.31693 44.541 165.695 193 184 175
2.3225 44.8081 166.097 193 184 175
2.32248 44.9708 166.093 193 184 175
2.31686 45.0279 165.685 193 184 175
2.62546 44.9923 164.965 193 184 175
2.62544 45.1539 164.961 193 184 175
2.31679 45.5148 165.675 193 184 175
2.31677 45.677 165.671 193 184 175
2.31675 45.8393 165.668 193 184 175
2.30983 45.8095 165.255 193 184 175
2.61767 45.7706 164.539 193 184 175
2.30975 46.2951 165.245 193 184 175
2.30973 46.4569 165.242 193 184 175
2.61754 46.4152 164.526 193 184 175
2.61751 46.5763 164.522 193 184 175
2.61749 46.7374 164.519 193 184 175
2.61607 46.8142 164.509 193 184 175
2.61884 47.144 164.519 193 184 175
2.3096 47.4279 165.222 193 184 175
2.30817 47.5049 165.212 193 184 175
2.32773 48.1733 166.435 193 184 175
2.63623 48.0385 165.702 193 184 175
2.6173 47.8651 164.495 193 184 175
2.30951 48.2368 165.205 193 184 175
2.30949 48.3986 165.201 193 184 175
2.30802 48.4755 165.191 193 184 175
2.61429 48.3404 164.469 193 184 175
2.61281 48.4171 164.459 193 184 175
2.63429 49.3139 165.296 193 184 175
2.63275 49.3907 165.285 193 184 175
2.6312 49.4676 165.275 193 184 175
2.62966 49.5444 165.265 193 184 175
2.30786 49.6076 165.168 193 184 175
2.01346 50.5918 167.11 193 184 175
2.00884 50.8247 167.078 193 184 175
2.0073 50.9023 167.068 193 184 175
2.62811 50.5315 165.606 193 184 175
0.413824 -50.6619 178.162 193 184 175
0.416604 -50.5769 178.166 193 184 175
0.419384 -50.492 178.171 193 184 175
0.422164 -50.4071 178.175 193 184 175
0.424944 -50.3222 178.18 193 184 175
0.427723 -50.2373 178.184 193 184 175
0.430502 -50.1525 178.189 193 184 175
0.430387 -49.9758 178.184 193 184 175
0.42932 -49.6747 177.716 193 184 175
0.60077 -49.504 177.759 193 184 175
0.600653 -49.3278 177.755 193 184 175
0.600537 -49.1516 177.751 193 184 175
0.600422 -48.9754 177.746 193 184 175
0.768275 -48.5619 176.868 193 184 175
0.774681 -48.7198 177.794 193 184 175
0.774556 -48.5436 177.79 193 184 175
0.433171 -48.5997 178.619 193 184 175
0.433054 -48.4227 178.615 193 184 175
0.432938 -48.2457 178.61 193 184 175
0.432823 -48.0687 178.606 193 184 175
0.432708 -47.8917 178.601 193 184 175
0.603606 -47.6004 178.179 193 184 175
0.43248 -47.5378 178.592 193 184 175
0.260557 -47.4748 179.008 193 184 175
0.260448 -47.2974 179.003 193 184 175
0.26034 -47.12 178.999 193 184 175
0.432031 -46.83 178.575 193 184 175
0.602911 -46.5413 178.152 193 184 175
0.431809 -46.4761 178.566 193 184 175
0.0873141 -46.5226 179.403 193 184 175
0.087212 -46.3449 179.398 193 184 175
0.0898307 -46.2592 179.402 193 184 175
0.08671 -45.4562 179.376 193 184 175
0.0866113 -45.2785 179.371 193 184 175
0.0865131 -45.1008 179.367 193 184 175
0.261646 -44.9068 178.949 193 184 175
0.435964 -44.7137 178.533 193 184 175
0.428878 -44.3737 178.973 193 184 175
0.0862154 -44.5024 179.821 193 184 175
0.0861208 -44.3243 179.817 193 184 175
0.0887535 -44.3504 180.295 193 184 175
0.262105 -44.065 179.865 193 184 175
0.0885522 -43.9933 180.286 193 184 175
0.0883535 -43.7041 179.807 193 184 175
0.261693 -43.3526 179.847 193 184 175
0.0881564 -43.2793 180.268 193 184 175
0.0880588 -43.1008 180.264 193 184 175
0.0878595 -42.8139 179.785 193 184 175
0.0903352 -42.7278 179.788 193 184 175
0.0825815 -42.274 179.76 193 184 175
0.0850281 -42.1879 179.763 193 184 175
0.0899202 -42.0158 179.77 193 184 175
0.265318 -41.8286 179.35 193 184 175
0.0845805 -41.3715 179.274 193 184 175
0.0869909 -41.2857 179.277 193 184 175
0.261888 -41.1007 178.859 193 184 175
0.435972 -40.9165 178.443 193 184 175
0.428388 -40.4664 178.416 193 184 175
0.430763 -40.3809 178.419 193 184 175
0.433138 -40.2954 178.422 193 184 175
0.606373 -40.1136 178.008 193 184 175
0.437888 -40.1245 178.428 193 184 175
0.423119 -39.4016 178.38 193 184 175
0.425442 -39.316 178.383 193 184 175
0.430087 -39.1449 178.388 193 184 175
0.429992 -38.9684 178.384 193 184 175
0.432308 -38.8828 178.387 193 184 175
0.429805 -38.6153 178.375 193 184 175
0.432106 -38.5298 178.378 193 184 175
0.432005 -38.3532 178.374 193 184 175
0.605118 -38.176 177.959 193 184 175
0.772431 -37.4673 177.525 193 184 175
0.433873 -37.5617 178.359 193 184 175
0.606939 -37.3863 177.944 193 184 175
0.609199 -37.301 177.947 193 184 175
0.61146 -37.2157 177.949 193 184 175
0.442925 -37.2196 178.369 193 184 175
0.445188 -37.1341 178.371 193 184 175
0.447451 -37.0486 178.374 193 184 175
0.756449 -35.0851 176.531 193 184 175
0.758582 -35.0003 176.533 193 184 175
0.760715 -34.9154 176.535 193 184 175
0.762848 -34.8306 176.537 193 184 175
0.595892 -34.8286 176.949 193 184 175
0.428155 -34.8266 177.364 193 184 175
0.771153 -34.6621 177.002 193 184 175
1.41493 -32.4628 172.665 193 184 175
1.41696 -32.3797 172.667 193 184 175
1.42606 -32.4543 173.549 193 184 175
1.42594 -32.2827 173.545 193 184 175
1.42583 -32.1111 173.541 193 184 175
1.42217 -31.8617 173.096 193 184 175
1.42206 -31.6905 173.091 193 184 175
1.42195 -31.5194 173.087 193 184 175
1.42184 -31.3482 173.083 193 184 175
1.4182 -31.1013 172.64 193 184 175
1.58121 -30.8587 172.246 193 184 175
1.41798 -30.7599 172.632 193 184 175
1.58306 -30.6056 172.244 193 184 175
1.57679 -30.1729 172.223 193 184 175
1.7411 -30.0203 171.836 193 184 175
1.74302 -29.9376 171.838 193 184 175
1.7386 -29.6959 171.401 193 184 175
1.73419 -29.4554 170.966 193 184 175
1.73407 -29.2864 170.962 193 184 175
2.04987 -28.9144 169.77 193 184 175
2.05988 -28.8844 170.618 193 184 175
2.05977 -28.7158 170.614 193 184 175
1.73362 -28.6102 170.946 193 184 175
1.73351 -28.4412 170.942 193 184 175
1.7334 -28.2722 170.938 193 184 175
1.73329 -28.1032 170.934 193 184 175
1.73318 -27.9342 170.93 193 184 175
1.73307 -27.7652 170.927 193 184 175
1.73921 -27.7496 171.358 193 184 175
1.73909 -27.5802 171.354 193 184 175
1.73898 -27.4108 171.35 193 184 175
1.74319 -27.3072 171.778 193 184 175
1.90466 -27.0746 171.388 193 184 175
1.73841 -26.564 171.33 193 184 175
1.9042 -26.3972 171.372 193 184 175
1.73819 -26.2254 171.322 193 184 175
1.73808 -26.0561 171.318 193 184 175
1.89914 -25.827 170.93 193 184 175
1.89433 -25.5965 170.498 193 184 175
1.88954 -25.3672 170.067 193 184 175
2.04909 -25.1413 169.685 193 184 175
2.04898 -24.9736 169.681 193 184 175
1.88921 -24.863 170.056 193 184 175
1.88444 -24.636 169.628 193 184 175
1.72863 -24.5834 170.428 193 184 175
1.72852 -24.4149 170.424 193 184 175
1.72842 -24.2465 170.42 193 184 175
1.72404 -24.0205 169.99 193 184 175
1.72821 -23.9097 170.412 193 184 175
1.7367 -23.8557 171.266 193 184 175
1.73837 -23.7731 171.267 193 184 175
1.74003 -23.6906 171.267 193 184 175
1.72607 -23.15 170.392 193 184 175
1.7277 -23.0678 170.393 193 184 175
1.73793 -23.0963 171.251 193 184 175
1.89894 -22.8742 170.863 193 184 175
1.89412 -22.651 170.431 193 184 175
1.88933 -22.4289 170.001 193 184 175
1.89093 -22.3469 170.002 193 184 175
1.89681 -22.1127 170.843 193 184 175
1.89839 -22.0304 170.843 193 184 175
1.89829 -21.8616 170.839 193 184 175
1.73709 -21.7432 171.219 193 184 175
2.05844 -21.4745 170.45 193 184 175
2.05324 -21.2552 170.02 193 184 175
1.88847 -21.0855 169.97 193 184 175
2.04794 -20.8696 169.588 193 184 175
1.89766 -20.8494 170.816 193 184 175
2.04773 -20.5346 169.58 193 184 175
1.88805 -20.414 169.954 193 184 175
1.88795 -20.2461 169.951 193 184 175
2.04741 -20.0321 169.569 193 184 175
2.04731 -19.8647 169.565 193 184 175
1.88765 -19.7426 169.939 193 184 175
1.88755 -19.5748 169.935 193 184 175
1.72718 -19.4518 170.311 193 184 175
1.89204 -19.2852 170.353 193 184 175
1.89822 -19.2491 170.78 193 184 175
2.05843 -19.0364 170.395 193 184 175
1.89801 -18.9119 170.772 193 184 175
1.89319 -18.6985 170.341 193 184 175
2.05301 -18.4876 169.957 193 184 175
1.88829 -18.3183 169.908 193 184 175
1.89608 -18.1514 170.753 193 184 175
1.73647 -18.111 171.136 193 184 175
2.046 -17.6885 169.515 193 184 175
2.05248 -17.6487 169.938 193 184 175
2.05599 -17.4368 170.356 193 184 175
1.89709 -17.3949 170.737 193 184 175
2.05217 -17.1455 169.926 193 184 175
2.05207 -16.9777 169.922 193 184 175
1.7358 -16.9286 171.109 193 184 175
1.8967 -16.7208 170.721 193 184 175
1.73128 -16.5511 170.671 193 184 175
1.56988 -16.4207 171.05 193 184 175
1.7311 -16.2142 170.664 193 184 175
1.56579 -16.0445 170.613 193 184 175
1.40549 -15.9993 170.995 193 184 175
1.56845 -15.8798 170.612 193 184 175
1.40816 -15.8343 170.994 193 184 175
1.57722 -15.4822 171.891 193 184 175
1.57853 -15.3992 171.89 193 184 175
1.5731 -15.1065 171.45 193 184 175
1.41199 -15.0589 171.836 193 184 175
1.89832 -14.8715 170.681 193 184 175
1.73866 -14.8236 171.063 193 184 175
1.73995 -14.7411 171.062 193 184 175
2.05677 -14.0792 170.281 193 184 175
1.89759 -13.6928 170.653 193 184 175
2.05904 -13.5788 170.271 193 184 175
2.04698 -12.5932 169.401 193 184 175
2.20559 -12.3973 169.022 193 184 175
2.04678 -12.2589 169.393 193 184 175
2.05177 -12.1206 169.812 193 184 175
2.20527 -11.8972 169.01 193 184 175
2.35178 -10.2432 167.768 193 184 175
2.92864 -8.47171 163.862 193 184 175
2.92962 -8.39262 163.86 193 184 175
2.93059 -8.31354 163.859 193 184 175
2.92822 -7.82512 163.848 193 184 175
2.92812 -7.6635 163.844 193 184 175
3.08068 -7.56721 163.491 193 184 175
3.24611 -7.34051 163.925 193 184 175
3.23144 -7.22825 163.135 193 184 175
3.07294 -7.06726 163.088 193 184 175
3.22346 -6.89073 162.736 193 184 175
3.22335 -6.73022 162.733 193 184 175
3.23098 -6.58469 163.121 193 184 175
3.53187 -6.47645 162.425 193 184 175
3.38009 -6.16674 162.764 193 184 175
3.51381 -6.0469 161.641 193 184 175
3.3647 -5.90086 161.981 193 184 175
3.38072 -5.76719 162.755 193 184 175
3.38061 -5.60671 162.752 193 184 175
3.53016 -5.43377 162.402 193 184 175
3.53005 -5.27365 162.398 193 184 175
3.67896 -5.10182 162.05 193 184 175
3.66135 -4.91984 161.276 193 184 175
3.80896 -4.74994 160.932 193 184 175
3.8179 -4.60157 161.312 193 184 175
3.81778 -4.44254 161.308 193 184 175
3.81766 -4.28351 161.305 193 184 175
3.52926 -4.15298 162.374 193 184 175
3.50486 -4.04725 161.213 193 184 175
3.65274 -3.87929 160.87 193 184 175
3.50463 -3.72932 161.206 193 184 175
3.6525 -3.56205 160.863 193 184 175
3.65238 -3.40344 160.86 193 184 175
3.52018 -3.18551 161.965 193 184 175
3.66955 -3.10003 161.62 193 184 175
3.66071 -2.93417 161.232 193 184 175
3.34736 -2.77611 161.143 193 184 175
3.50382 -2.61675 161.182 193 184 175
3.51206 -2.46331 161.563 193 184 175
3.80793 -2.29286 160.879 193 184 175
3.80781 -2.13429 160.875 193 184 175
3.66875 -1.98499 161.596 193 184 175
3.52843 -1.83437 162.323 193 184 175
3.66852 -1.66647 161.589 193 184 175
3.51979 -1.51112 161.929 193 184 175
3.51129 -1.34859 161.539 193 184 175
3.51119 -1.18937 161.536 193 184 175
3.65936 -1.0273 161.191 193 184 175
3.51097 -0.870957 161.529 193 184 175
3.51087 -0.71176 161.525 193 184 175
3.50313 -0.632581 161.139 193 184 175
3.64231 -0.471174 160.415 193 184 175
3.78917 -0.31175 160.075 193 184 175
3.92616 -0.152813 159.361 193 184 175
3.49438 0.00252587 160.743 193 184 175
3.78815 0.242138 160.065 193 184 175
3.78871 0.319301 160.062 193 184 175
3.93429 0.557075 159.723 193 184 175
3.93483 0.634067 159.72 193 184 175
3.78837 0.792519 160.052 193 184 175
3.79723 0.95254 160.427 193 184 175
3.78815 1.10796 160.045 193 184 175
3.78804 1.26568 160.042 193 184 175
3.78793 1.42338 160.038 193 184 175
3.79679 1.5848 160.414 193 184 175
3.94333 1.73976 160.074 193 184 175
4.23468 1.89065 159.402 193 184 175
3.78749 2.05414 160.025 193 184 175
3.9337 2.20773 159.687 193 184 175
3.79624 2.37498 160.397 193 184 175
3.76992 2.43528 159.262 193 184 175
3.76981 2.59222 159.259 193 184 175
3.76969 2.74916 159.255 193 184 175
3.62332 2.91165 159.585 193 184 175
3.76947 3.06302 159.249 193 184 175
3.76936 3.21994 159.245 193 184 175
3.76925 3.37685 159.242 193 184 175
3.91479 3.52689 158.907 193 184 175
3.77792 3.69913 159.611 193 184 175
3.76892 3.84755 159.232 193 184 175
3.76882 4.00444 159.229 193 184 175
3.78652 4.18041 159.978 193 184 175
3.78642 4.338 159.975 193 184 175
3.79527 4.50589 160.35 193 184 175
4.08776 4.64519 159.676 193 184 175
3.79506 4.82174 160.343 193 184 175
3.79496 4.97965 160.34 193 184 175
4.22286 5.09505 158.959 193 184 175
3.93205 5.27272 159.62 193 184 175
4.07759 5.419 159.284 193 184 175
3.94112 5.59987 159.991 193 184 175
4.0587 5.62692 158.531 193 184 175
4.20299 5.77148 158.2 193 184 175
4.20287 5.92729 158.196 193 184 175
4.05836 6.09534 158.521 193 184 175
3.92247 6.27833 159.222 193 184 175
4.06767 6.42211 158.887 193 184 175
4.04854 6.54889 158.141 193 184 175
4.04843 6.70465 158.138 193 184 175
4.05781 6.87591 158.505 193 184 175
4.20208 7.01778 158.173 193 184 175
4.21181 7.18974 158.541 193 184 175
4.22158 7.36246 158.909 193 184 175
4.22147 7.5189 158.906 193 184 175
4.07635 7.69103 159.234 193 184 175
4.07625 7.84779 159.231 193 184 175
4.22114 7.98819 158.896 193 184 175
4.22103 8.14461 158.893 193 184 175
4.06637 8.29924 158.847 193 184 175
4.06626 8.45563 158.844 193 184 175
4.07572 8.63151 159.214 193 184 175
4.2206 8.77021 158.88 193 184 175
4.19125 8.78702 157.765 193 184 175
4.04712 8.96061 158.088 193 184 175
4.19103 9.09769 157.759 193 184 175
4.22043 9.31571 158.866 193 184 175
4.21044 9.45073 158.491 193 184 175
4.04669 9.5832 158.075 193 184 175
4.04683 9.65917 158.071 193 184 175
4.0746 10.122 159.186 193 184 175
3.92914 10.2196 159.514 193 184 175
4.05574 10.2287 158.432 193 184 175
4.20979 10.3867 158.471 193 184 175
4.19985 10.5189 158.098 193 184 175
3.765 10.7407 159.083 193 184 175
3.91042 10.8748 158.749 193 184 175
4.20936 11.0105 158.458 193 184 175
3.92865 11.238 159.49 193 184 175
3.7824 11.4187 159.821 193 184 175
3.75585 11.4176 158.692 193 184 175
3.75593 11.4938 158.688 193 184 175
3.90117 11.5462 158.355 193 184 175
3.75608 11.6463 158.679 193 184 175
3.79058 12.4749 160.186 193 184 175
3.93704 12.5256 159.846 193 184 175
3.93704 12.6023 159.841 193 184 175
3.79059 12.7055 160.172 193 184 175
3.78166 12.7534 159.79 193 184 175
3.78156 12.9106 159.786 193 184 175
3.93685 13.0702 159.826 193 184 175
3.48729 13.2804 160.451 193 184 175
3.92738 13.3543 159.443 193 184 175
3.78117 13.5394 159.773 193 184 175
3.63435 13.7252 160.105 193 184 175
3.34692 13.973 161.159 193 184 175
3.64278 14.0722 160.478 193 184 175
3.49503 14.26 160.812 193 184 175
3.6426 14.3879 160.471 193 184 175
3.49485 14.5764 160.806 193 184 175
3.65106 14.7371 160.845 193 184 175
3.94507 14.8329 160.167 193 184 175
3.65089 15.0535 160.839 193 184 175
3.50282 15.2438 161.175 193 184 175
3.78909 15.3027 160.115 193 184 175
3.79797 15.4954 160.49 193 184 175
3.79788 15.6532 160.487 193 184 175
3.50249 15.8778 161.161 193 184 175
3.65036 16.0025 160.819 193 184 175
3.65028 16.1606 160.815 193 184 175
3.6415 16.2007 160.43 193 184 175
3.48552 16.3557 160.383 193 184 175
3.77938 16.4443 159.709 193 184 175
3.92534 16.5666 159.372 193 184 175
3.48526 16.8289 160.373 193 184 175
3.63245 16.9509 160.034 193 184 175
3.63236 17.1083 160.031 193 184 175
3.63227 17.2657 160.027 193 184 175
3.92488 17.3502 159.356 193 184 175
3.6321 17.5804 160.021 193 184 175
3.49302 17.8156 160.734 193 184 175
3.79646 17.9387 160.436 193 184 175
3.79637 18.0965 160.432 193 184 175
3.79629 18.2542 160.429 193 184 175
3.7962 18.4119 160.426 193 184 175
3.79611 18.5696 160.422 193 184 175
4.0984 18.6908 160.125 193 184 175
3.80494 18.9279 160.796 193 184 175
3.94252 19.0025 160.076 193 184 175
4.08847 19.1196 159.738 193 184 175
3.79569 19.3579 160.406 193 184 175
3.77753 19.3467 159.645 193 184 175
3.77744 19.5037 159.641 193 184 175
3.92334 19.6194 159.305 193 184 175
3.63066 19.8592 159.969 193 184 175
3.48336 20.0587 160.302 193 184 175
3.48327 20.2163 160.299 193 184 175
3.47497 20.3277 159.917 193 184 175
3.48311 20.5315 160.292 193 184 175
3.77683 20.6021 159.619 193 184 175
3.93196 20.7623 159.658 193 184 175
3.94115 20.9665 160.031 193 184 175
3.94106 21.1238 160.028 193 184 175
3.49927 21.4164 161.038 193 184 175
3.64704 21.529 160.695 193 184 175
4.08662 21.8638 159.677 193 184 175
3.79394 22.1138 160.344 193 184 175
3.79386 22.2713 160.341 193 184 175
3.79378 22.4288 160.338 193 184 175
3.7937 22.5864 160.335 193 184 175
3.93059 22.564 159.616 193 184 175
3.93051 22.7208 159.613 193 184 175
3.93042 22.8776 159.609 193 184 175
4.07598 22.9861 159.273 193 184 175
3.92102 23.139 159.228 193 184 175
3.77501 23.3444 159.557 193 184 175
3.77492 23.5012 159.554 193 184 175
3.77484 23.658 159.551 193 184 175
3.63681 23.9191 160.26 193 184 175
3.63673 24.0765 160.257 193 184 175
3.48919 24.2853 160.591 193 184 175
3.48911 24.4431 160.587 193 184 175
4.0944 24.5045 159.995 193 184 175
3.50555 24.8716 161.345 193 184 175
3.64495 24.9202 160.62 193 184 175
3.49709 25.1312 160.955 193 184 175
3.49657 25.2079 160.949 193 184 175
3.48868 25.3896 160.568 193 184 175
3.49688 25.6055 160.946 193 184 175
3.49681 25.7635 160.942 193 184 175
3.94748 25.8158 160.305 193 184 175
3.48791 25.9391 160.551 193 184 175
3.48735 26.0156 160.545 193 184 175
3.51371 26.5983 161.7 193 184 175
3.80933 26.5618 161.011 193 184 175
3.80873 26.6384 161.004 193 184 175
3.48754 26.7275 160.535 193 184 175
3.48747 26.8852 160.532 193 184 175
3.49566 27.1044 160.909 193 184 175
3.34668 27.2389 161.243 193 184 175
3.3483 27.6422 161.25 193 184 175
3.19867 27.778 161.584 193 184 175
3.19803 27.8548 161.577 193 184 175
3.19797 28.0135 161.574 193 184 175
3.20612 28.3188 161.96 193 184 175
3.20547 28.3957 161.954 193 184 175
3.2054 28.5547 161.95 193 184 175
3.21299 28.7796 162.334 193 184 175
3.22062 29.0056 162.72 193 184 175
3.21287 29.0983 162.328 193 184 175
3.22049 29.325 162.714 193 184 175
3.22043 29.4847 162.71 193 184 175
3.06976 29.7083 163.055 193 184 175
3.0697 29.8683 163.051 193 184 175
3.22797 30.0328 163.091 193 184 175
2.91069 30.1012 162.997 193 184 175
3.06087 30.1136 162.643 193 184 175
2.91893 30.6572 163.391 193 184 175
2.91818 30.7347 163.384 193 184 175
2.91813 30.895 163.38 193 184 175
2.93215 31.1994 164.167 193 184 175
2.9321 31.3605 164.164 193 184 175
2.91727 31.2931 163.366 193 184 175
3.0758 31.458 163.406 193 184 175
3.22666 31.5501 163.054 193 184 175
3.22734 31.7928 163.054 193 184 175
2.61898 32.1475 164.453 193 184 175
2.61819 32.2254 164.445 193 184 175
2.61741 32.3033 164.438 193 184 175
3.07323 32.1713 163.374 193 184 175
2.61508 32.5371 164.415 193 184 175
2.91934 32.4738 163.702 193 184 175
2.95092 33.9506 164.947 193 184 175
2.33026 34.5642 166.354 193 184 175
2.32937 34.6428 166.346 193 184 175
2.32849 34.7214 166.338 193 184 175
2.94454 34.496 164.892 193 184 175
2.33324 35.0454 166.734 193 184 175
2.48881 35.1313 166.367 193 184 175
2.33317 35.3724 166.727 193 184 175
2.33884 35.6197 167.134 193 184 175
2.3388 35.7835 167.13 193 184 175
2.33877 35.9474 167.127 193 184 175
2.33873 36.1112 167.123 193 184 175
2.95844 35.9565 165.668 193 184 175
2.33297 36.3531 166.707 193 184 175
2.33294 36.5165 166.703 193 184 175
2.48152 36.429 165.925 193 184 175
2.32628 36.6723 166.283 193 184 175
2.943 36.5135 164.843 193 184 175
2.78304 36.6698 164.796 193 184 175
2.78299 36.8314 164.792 193 184 175
2.93577 36.9123 164.434 193 184 175
2.47528 37.3175 165.5 193 184 175
2.94266 37.6444 164.819 193 184 175
2.32597 38.1392 166.252 193 184 175
2.33159 38.3923 166.656 193 184 175
2.33156 38.5556 166.653 193 184 175
2.95673 38.4694 165.608 193 184 175
2.64828 38.8021 166.327 193 184 175
2.49304 39.0512 166.687 193 184 175
2.33144 39.2089 166.639 193 184 175
2.33141 39.3722 166.636 193 184 175
2.94938 39.1891 165.188 193 184 175
2.33703 39.7924 167.038 193 184 175
2.337 39.9561 167.034 193 184 175
2.94107 39.4985 164.773 193 184 175
2.94103 39.66 164.769 193 184 175
2.94098 39.8214 164.766 193 184 175
2.94094 39.9829 164.763 193 184 175
2.78778 40.2322 165.116 193 184 175
2.64034 40.5774 165.874 193 184 175
2.63393 40.6448 165.467 193 184 175
2.78766 40.7175 165.106 193 184 175
2.94072 40.79 164.746 193 184 175
3.09311 40.8621 164.387 193 184 175
2.94772 41.2085 165.139 193 184 175
2.94768 41.3703 165.135 193 184 175
2.64009 41.7148 165.85 193 184 175
2.64005 41.8773 165.847 193 184 175
2.79412 41.9474 165.484 193 184 175
2.63999 42.2022 165.84 193 184 175
2.63995 42.3646 165.837 193 184 175
2.63992 42.5271 165.833 193 184 175
2.63983 43.0144 165.823 193 184 175
2.63221 42.9915 165.41 193 184 175
2.93767 43.0421 164.683 193 184 175
2.94718 43.4727 165.091 193 184 175
2.94589 43.55 165.082 193 184 175
2.93877 43.6101 164.679 193 184 175
2.94708 43.9577 165.081 193 184 175
2.94577 44.0349 165.072 193 184 175
2.94573 44.1966 165.069 193 184 175
2.9444 44.2738 165.059 193 184 175
2.78971 44.4485 165.408 193 184 175
2.33073 45.2469 166.512 193 184 175
2.32939 45.3247 166.503 193 184 175
2.79217 45.1035 165.41 193 184 175
2.79214 45.2655 165.406 193 184 175
2.48338 45.6278 166.124 193 184 175
2.48335 45.7904 166.12 193 184 175
2.79204 45.7513 165.396 193 184 175
2.94536 45.8126 165.035 193 184 175
2.32792 46.3807 166.472 193 184 175
2.93547 46.0213 164.613 193 184 175
2.93407 46.0982 164.603 193 184 175
2.94661 46.705 165.024 193 184 175
2.63635 47.3897 165.715 193 184 175
2.63632 47.5519 165.712 193 184 175
2.47567 47.7076 165.665 193 184 175
2.32069 47.9753 166.022 193 184 175
2.32067 48.1378 166.019 193 184 175
2.32065 48.3003 166.015 193 184 175
2.32623 48.5766 166.418 193 184 175
2.64248 48.8012 166.092 193 184 175
2.63463 48.7644 165.678 193 184 175
2.93885 48.7044 164.941 193 184 175
2.32025 49.2123 166.371 193 184 175
2.31877 49.2899 166.361 193 184 175
2.33792 50.3401 166.827 193 184 175
2.33635 50.4175 166.816 193 184 175
2.33478 50.4949 166.806 193 184 175
2.33321 50.5724 166.795 193 184 175
2.33165 50.6498 166.785 193 184 175
2.32132 50.9256 166.343 193 184 175
0.766467 -50.7715 178.28 193 184 175
0.769271 -50.6866 178.284 193 184 175
0.772074 -50.6017 178.289 193 184 175
0.774877 -50.5168 178.294 193 184 175
0.772909 -50.2143 177.825 193 184 175
1.11094 -49.7999 176.994 193 184 175
1.11082 -49.6245 176.989 193 184 175
1.11069 -49.4491 176.985 193 184 175
0.772426 -49.5093 177.807 193 184 175
0.775185 -49.4246 177.812 193 184 175
0.94393 -49.1622 177.846 193 184 175
0.778408 -48.9643 178.724 193 184 175
0.778284 -48.7873 178.72 193 184 175
0.778162 -48.6102 178.715 193 184 175
0.778039 -48.4331 178.711 193 184 175
0.777918 -48.2561 178.706 193 184 175
0.777797 -48.079 178.702 193 184 175
0.779438 -47.845 179.161 193 184 175
0.777437 -47.548 178.688 193 184 175
0.777318 -47.3709 178.684 193 184 175
0.775325 -47.0758 178.214 193 184 175
0.777082 -47.017 178.675 193 184 175
0.947243 -46.7277 178.252 193 184 175
1.12214 -46.6475 178.304 193 184 175
0.605214 -45.8886 179.064 193 184 175
0.433243 -45.8216 179.482 193 184 175
0.433137 -45.6438 179.477 193 184 175
0.433032 -45.4661 179.473 193 184 175
0.432927 -45.2883 179.469 193 184 175
0.432823 -45.1106 179.464 193 184 175
0.437413 -45.253 180.415 193 184 175
0.610044 -44.9652 179.984 193 184 175
0.437194 -44.8957 180.406 193 184 175
0.436073 -44.6041 179.927 193 184 175
0.438632 -44.5181 179.93 193 184 175
0.433213 -44.1557 179.91 193 184 175
0.435749 -44.0697 179.913 193 184 175
0.436657 -44.0027 180.383 193 184 175
0.436551 -43.8241 180.379 193 184 175
0.43543 -43.5353 179.9 193 184 175
0.437943 -43.4493 179.903 193 184 175
0.440456 -43.3633 179.907 193 184 175
0.442969 -43.2773 179.91 193 184 175
0.445482 -43.1913 179.913 193 184 175
0.587909 -41.2642 178.918 193 184 175
0.418521 -41.2778 179.343 193 184 175
0.766047 -40.9083 178.508 193 184 175
0.768435 -40.8227 178.511 193 184 175
0.599864 -40.8352 178.933 193 184 175
0.602255 -40.7495 178.936 193 184 175
0.604646 -40.6638 178.939 193 184 175
0.777988 -40.4805 178.523 193 184 175
0.604444 -40.3096 178.93 193 184 175
0.604344 -40.1325 178.926 193 184 175
0.777653 -39.9506 178.509 193 184 175
0.772636 -39.5918 178.491 193 184 175
0.774979 -39.5063 178.493 193 184 175
0.777323 -39.4207 178.496 193 184 175
0.779136 -39.3427 178.959 193 184 175
0.779028 -39.1656 178.955 193 184 175
0.947116 -38.7977 178.066 193 184 175
0.947006 -38.6215 178.061 193 184 175
0.776783 -38.5378 178.474 193 184 175
1.1161 -38.1777 177.637 193 184 175
0.946676 -38.0931 178.048 193 184 175
0.772641 -37.8186 177.533 193 184 175
0.772536 -37.6429 177.529 193 184 175
0.774339 -37.5609 177.987 193 184 175
0.774235 -37.3849 177.983 193 184 175
0.943782 -37.1198 177.564 193 184 175
0.943675 -36.9442 177.559 193 184 175
0.945913 -36.859 177.562 193 184 175
0.948151 -36.7738 177.564 193 184 175
0.938706 -36.2366 177.079 193 184 175
0.940908 -36.1516 177.082 193 184 175
0.940803 -35.9765 177.077 193 184 175
0.9407 -35.8013 177.073 193 184 175
0.775619 -35.8912 177.95 193 184 175
0.947434 -35.7201 177.538 193 184 175
1.11845 -35.5498 177.127 193 184 175
1.12065 -35.4648 177.129 193 184 175
1.12284 -35.3798 177.131 193 184 175
1.12503 -35.2949 177.134 193 184 175
1.12722 -35.2099 177.136 193 184 175
1.08221 -33.3596 174.776 193 184 175
1.08426 -33.2755 174.778 193 184 175
